# .PCD v.7 - Point Cloud Data file format
FIELDS x y z rgb imX imY
SIZE 4 4 4 4 4 4
TYPE F F F F F F
COUNT 1 1 1 1 1 1
WIDTH 859
HEIGHT 1
VIEWPOINT 0 0 0 1 0 0 0
POINTS 859
DATA ascii
0.030325651 0.75199997 0.027688639 3.2211059e-39 343 219
0.031644158 0.75199997 0.027688639 3.2207528e-39 344 219
0.033050332 0.75400001 0.027762281 3.3133072e-39 345 219
0.034372345 0.75400001 0.027762281 3.3133044e-39 346 219
0.035694357 0.75400001 0.027762281 3.3133044e-39 347 219
0.037016369 0.75400001 0.027762281 3.4976886e-39 348 219
0.038389232 0.755 0.027799098 3.3136575e-39 349 219
0.039712999 0.755 0.027799098 3.0385097e-39 350 219
0.041254178 0.759 0.027946379 3.0385097e-39 351 219
0.042697169 0.76099998 0.028020019 2.9484651e-39 352 219
0.044031456 0.76099998 0.028020019 8.2796561e-40 353 219
0.045365743 0.76099998 0.028020019 4.5085839e-39 354 219
0.046700031 0.76099998 0.028020019 1.538731e-38 355 219
-0.026896132 0.76700002 0.026896132 1.318759e-38 300 220
-0.025518013 0.76599997 0.026861066 4.2442556e-39 301 220
-0.024174958 0.76599997 0.026861066 4.0530344e-39 302 220
-0.022831906 0.76599997 0.026861066 3.0388811e-39 303 220
-0.021432746 0.764 0.026790932 5.2386226e-39 304 220
-0.0200406 0.76200002 0.0267208 5.883992e-39 305 220
-0.018680012 0.76099998 0.026685731 6.5340361e-39 306 220
-0.017345725 0.76099998 0.026685731 7.4559938e-39 307 220
-0.015969358 0.759 0.026615599 6.5343837e-39 308 220
-0.014600007 0.75700003 0.026545467 5.8890142e-39 309 220
-0.013272733 0.75700003 0.026545467 5.7950039e-39 310 220
-0.011913899 0.755 0.026475333 5.2418302e-39 311 220
-0.010590133 0.755 0.026475333 5.0549208e-39 312 220
-0.0092663663 0.755 0.026475333 4.593944e-39 313 220
-0.0079425992 0.755 0.026475333 3.8571063e-39 314 220
-0.0066188332 0.755 0.026475333 3.6734339e-39 315 220
-0.0052880533 0.75400001 0.026440267 3.2149752e-39 316 220
-0.00396604 0.75400001 0.026440267 3.3071709e-39 317 220
-0.0026440267 0.75400001 0.026440267 3.5826816e-39 318 220
-0.0013220133 0.75400001 0.026440267 3.9511054e-39 319 220
0 0.75400001 0.026440267 4.0443856e-39 320 220
0.0013220133 0.75400001 0.026440267 4.3206123e-39 321 220
0.0026440267 0.75400001 0.026440267 4.4131653e-39 322 220
0.00396604 0.75400001 0.026440267 4.4131653e-39 323 220
0.0052950666 0.755 0.026475333 4.2287698e-39 324 220
0.0066188332 0.755 0.026475333 4.2287698e-39 325 220
0.0079425992 0.755 0.026475333 4.2305663e-39 326 220
0.0092663663 0.755 0.026475333 4.2305663e-39 327 220
0.010618187 0.75700003 0.026545467 4.2330732e-39 328 220
0.01181922 0.74900001 0.026264934 4.3252689e-39 329 220
0.013132467 0.74900001 0.026264934 4.6922465e-39 330 220
0.014445714 0.74900001 0.026264934 4.7844435e-39 331 220
0.01575896 0.74900001 0.026264934 5.4272976e-39 332 220
0.017072206 0.74900001 0.026264934 5.7038845e-39 333 220
0.018409999 0.75 0.0263 5.7035314e-39 334 220
0.019724999 0.75 0.0263 5.6113357e-39 335 220
0.02104 0.75 0.0263 5.0606857e-39 336 220
0.022355 0.75 0.0263 4.7837401e-39 337 220
0.023733119 0.75199997 0.02637013 4.5060798e-39 338 220
0.025051624 0.75199997 0.02637013 4.0451017e-39 339 220
0.02637013 0.75199997 0.02637013 3.6777639e-39 340 220
0.027688639 0.75199997 0.02637013 3.5855682e-39 341 220
0.029007144 0.75199997 0.02637013 3.2196598e-39 342 220
0.030325651 0.75199997 0.02637013 3.3118554e-39 343 220
0.031644158 0.75199997 0.02637013 3.3125715e-39 344 220
0.032962665 0.75199997 0.02637013 3.4051272e-39 345 220
0.034281172 0.75199997 0.02637013 3.4962481e-39 346 220
0.035694357 0.75400001 0.026440267 3.4962481e-39 347 220
0.037016369 0.75400001 0.026440267 3.4047713e-39 348 220
0.038338386 0.75400001 0.026440267 3.4969669e-39 349 220
0.039712999 0.755 0.026475333 3.1299795e-39 350 220
0.041036766 0.755 0.026475333 3.1299795e-39 351 220
0.042584959 0.759 0.026615599 3.6817113e-39 352 220
0.044031456 0.76099998 0.026685731 2.0221886e-39 353 220
0.045365743 0.76099998 0.026685731 4.4185505e-39 354 220
0.046700031 0.76099998 0.026685731 1.3822863e-38 355 220
-0.026896132 0.76700002 0.025551327 1.1526991e-38 300 221
-0.025518013 0.76599997 0.025518013 3.321579e-39 301 221
-0.024111839 0.764 0.025451386 4.2349033e-39 302 221
-0.022772292 0.764 0.025451386 3.3133072e-39 303 221
-0.021432746 0.764 0.025451386 4.9631175e-39 304 221
-0.0200406 0.76200002 0.02538476 5.5159325e-39 305 221
-0.018680012 0.76099998 0.025351444 5.7053671e-39 306 221
-0.017300138 0.759 0.025284819 5.8897597e-39 307 221
-0.015969358 0.759 0.025284819 5.7049957e-39 308 221
-0.014561433 0.755 0.025151566 5.3362118e-39 309 221
-0.013237666 0.755 0.025151566 5.8846828e-39 310 221
-0.011913899 0.755 0.025151566 5.7002902e-39 311 221
-0.010590133 0.755 0.025151566 5.882515e-39 312 221
-0.0092663663 0.755 0.025151566 5.14495e-39 313 221
-0.0079425992 0.755 0.025151566 4.5006722e-39 314 221
-0.0066100666 0.75400001 0.025118252 4.224444e-39 315 221
-0.0052740262 0.75199997 0.025051624 3.3982903e-39 316 221
-0.0039555198 0.75199997 0.025051624 3.3982903e-39 317 221
-0.00263 0.75 0.024984999 3.3075366e-39 318 221
-0.001315 0.75 0.024984999 3.4922866e-39 319 221
0 0.75 0.024984999 3.5841305e-39 320 221
0.001315 0.75 0.024984999 3.7681616e-39 321 221
0.00263 0.75 0.024984999 3.5852123e-39 322 221
0.003945 0.75 0.024984999 3.3089856e-39 323 221
0.00526 0.75 0.024984999 3.217506e-39 324 221
0.006575 0.75 0.024984999 3.3097016e-39 325 221
0.00789 0.75 0.024984999 3.2200129e-39 326 221
0.0092049995 0.75 0.024984999 3.772828e-39 327 221
0.01052 0.75 0.024984999 3.8653767e-39 328 221
0.01181922 0.74900001 0.024951685 3.9579311e-39 329 221
0.013132467 0.74900001 0.024951685 4.3249157e-39 330 221
0.014407139 0.74699998 0.024885058 4.5089483e-39 331 221
0.015716879 0.74699998 0.024885058 4.6926235e-39 332 221
0.017026618 0.74699998 0.024885058 4.6926235e-39 333 221
0.018385453 0.74900001 0.024951685 4.8759385e-39 334 221
0.0196987 0.74900001 0.024951685 4.7837429e-39 335 221
0.021011947 0.74900001 0.024951685 4.7830226e-39 336 221
0.022325192 0.74900001 0.024951685 4.5986314e-39 337 221
0.02363844 0.74900001 0.024951685 5.1474863e-39 338 221
0.024951685 0.74900001 0.024951685 4.9630965e-39 339 221
0.026264934 0.74900001 0.024951685 4.8719728e-39 340 221
0.027578179 0.74900001 0.024951685 4.5957447e-39 341 221
0.028891427 0.74900001 0.024951685 3.8621425e-39 342 221
0.030204674 0.74900001 0.024951685 3.8621425e-39 343 221
0.031517919 0.74900001 0.024951685 3.5877192e-39 344 221
0.032962665 0.75199997 0.025051624 3.5877192e-39 345 221
0.034281172 0.75199997 0.025051624 3.6799191e-39 346 221
0.035599679 0.75199997 0.025051624 3.6799191e-39 347 221
0.037016369 0.75400001 0.025118252 3.4962481e-39 348 221
0.038338386 0.75400001 0.025118252 3.6802792e-39 349 221
0.039660402 0.75400001 0.025118252 3.2214591e-39 350 221
0.041036766 0.755 0.025151566 3.2214591e-39 351 221
0.042360533 0.755 0.025151566 3.0392188e-39 352 221
0.043800019 0.75700003 0.025218192 1.74848e-39 353 221
0.045365743 0.76099998 0.025351444 3.9604492e-39 354 221
0.046700031 0.76099998 0.025351444 1.2626838e-38 355 221
-0.026861066 0.76599997 0.024174958 9.8660282e-39 300 222
-0.025451386 0.764 0.024111839 2.9513546e-39 301 222
-0.024111839 0.764 0.024111839 4.6926389e-39 302 222
-0.022772292 0.764 0.024111839 4.1394651e-39 303 222
-0.02137664 0.76200002 0.02404872 5.5137675e-39 304 222
-0.0200406 0.76200002 0.02404872 5.4215719e-39 305 222
-0.018680012 0.76099998 0.024017159 5.6985287e-39 306 222
-0.017300138 0.759 0.023954039 5.9754744e-39 307 222
-0.015969358 0.759 0.023954039 5.7921523e-39 308 222
-0.014561433 0.755 0.023827799 5.7921523e-39 309 222
-0.013237666 0.755 0.023827799 5.608819e-39 310 222
-0.01189812 0.75400001 0.02379624 5.516622e-39 311 222
-0.010576107 0.75400001 0.02379624 5.6084421e-39 312 222
-0.0092540924 0.75400001 0.02379624 5.3322153e-39 313 222
-0.00793208 0.75400001 0.02379624 4.8698022e-39 314 222
-0.0066100666 0.75400001 0.02379624 4.5013784e-39 315 222
-0.0052740262 0.75199997 0.023733119 3.7663442e-39 316 222
-0.003945 0.75 0.023669999 3.4901174e-39 317 222
-0.00263 0.75 0.023669999 3.3071709e-39 318 222
-0.001315 0.75 0.023669999 3.491202e-39 319 222
0 0.74900001 0.02363844 3.6748772e-39 320 222
0.0013132467 0.74900001 0.02363844 3.6748772e-39 321 222
0.0026264933 0.74900001 0.02363844 3.3997322e-39 322 222
0.0039397399 0.74900001 0.02363844 3.3075366e-39 323 222
0.0052529867 0.74900001 0.02363844 3.0320287e-39 324 222
0.0065662335 0.74900001 0.02363844 3.21642e-39 325 222
0.0078794798 0.74900001 0.02363844 3.218215e-39 326 222
0.0091927266 0.74900001 0.02363844 3.4948019e-39 327 222
0.010477919 0.74699998 0.023575317 3.8635817e-39 328 222
0.011787659 0.74699998 0.023575317 4.0479729e-39 329 222
0.013097399 0.74699998 0.023575317 4.5986286e-39 330 222
0.014407139 0.74699998 0.023575317 4.5986286e-39 331 222
0.015716879 0.74699998 0.023575317 4.690827e-39 332 222
0.017026618 0.74699998 0.023575317 4.506077e-39 333 222
0.018336359 0.74699998 0.023575317 4.964537e-39 334 222
0.019646099 0.74699998 0.023575317 4.7805059e-39 335 222
0.021011947 0.74900001 0.02363844 4.9641713e-39 336 222
0.022265578 0.74699998 0.023575317 5.0563669e-39 337 222
0.023575317 0.74699998 0.023575317 5.3325811e-39 338 222
0.024885058 0.74699998 0.023575317 5.4247767e-39 339 222
0.026264934 0.74900001 0.02363844 4.9670257e-39 340 222
0.027578179 0.74900001 0.02363844 4.7822757e-39 341 222
0.028891427 0.74900001 0.02363844 4.2294733e-39 342 222
0.030204674 0.74900001 0.02363844 4.3216689e-39 343 222
0.031517919 0.74900001 0.02363844 3.7706658e-39 344 222
0.032831166 0.74900001 0.02363844 3.9550584e-39 345 222
0.034189999 0.75 0.023669999 3.8632257e-39 346 222
0.035599679 0.75199997 0.023733119 3.8632257e-39 347 222
0.036918186 0.75199997 0.023733119 3.6799135e-39 348 222
0.038338386 0.75400001 0.02379624 3.6799135e-39 349 222
0.039660402 0.75400001 0.02379624 3.2218122e-39 350 222
0.041036766 0.755 0.023827799 3.2218122e-39 351 222
0.042360533 0.755 0.023827799 3.3150798e-39 352 222
0.043800019 0.75700003 0.02389092 2.024341e-39 353 222
0.045246519 0.759 0.023954039 3.5916667e-39 354 222
0.046700031 0.76099998 0.024017159 1.1704523e-38 355 222
0.048034318 0.76099998 0.024017159 1.4748408e-38 356 222
-0.026861066 0.76599997 0.022831906 8.4805728e-39 300 223
-0.025451386 0.764 0.022772292 3.4098118e-39 301 223
-0.024111839 0.764 0.022772292 5.3351244e-39 302 223
-0.022772292 0.764 0.022772292 5.0581788e-39 303 223
-0.02137664 0.76200002 0.02271268 5.4212034e-39 304 223
-0.020014299 0.76099998 0.022682872 5.3290063e-39 305 223
-0.018680012 0.76099998 0.022682872 5.3293763e-39 306 223
-0.017300138 0.759 0.02262326 5.4215719e-39 307 223
-0.015927281 0.75700003 0.022563647 5.148215e-39 308 223
-0.014561433 0.755 0.022504034 5.4244418e-39 309 223
-0.013237666 0.755 0.022504034 5.5169751e-39 310 223
-0.01189812 0.75400001 0.022474226 5.5169751e-39 311 223
-0.010576107 0.75400001 0.022474226 5.8835842e-39 312 223
-0.0092540924 0.75400001 0.022474226 5.7913886e-39 313 223
-0.00793208 0.75400001 0.022474226 5.147817e-39 314 223
-0.0065662335 0.74900001 0.022325192 4.6868403e-39 315 223
-0.0052529867 0.74900001 0.022325192 4.2269566e-39 316 223
-0.0039397399 0.74900001 0.022325192 3.858174e-39 317 223
-0.0026264933 0.74900001 0.022325192 3.4904831e-39 318 223
-0.0013132467 0.74900001 0.022325192 3.4904831e-39 319 223
0 0.74900001 0.022325192 3.3068177e-39 320 223
0.0013132467 0.74900001 0.022325192 3.3068177e-39 321 223
0.0026264933 0.74900001 0.022325192 3.1227894e-39 322 223
0.0039397399 0.74900001 0.022325192 2.9387583e-39 323 223
0.0052529867 0.74900001 0.022325192 2.8472815e-39 324 223
0.0065662335 0.74900001 0.022325192 2.9394772e-39 325 223
0.0078794798 0.74900001 0.022325192 3.1242244e-39 326 223
0.0091681797 0.74699998 0.022265578 3.4004511e-39 327 223
0.010477919 0.74699998 0.022265578 4.0461708e-39 328 223
0.011787659 0.74699998 0.022265578 4.5075091e-39 329 223
0.013097399 0.74699998 0.022265578 4.7840904e-39 330 223
0.014387853 0.74599999 0.022235774 4.323471e-39 331 223
0.015695838 0.74599999 0.022235774 4.5057113e-39 332 223
0.017003827 0.74599999 0.022235774 4.4135156e-39 333 223
0.018336359 0.74699998 0.022265578 4.4127954e-39 334 223
0.019646099 0.74699998 0.022265578 4.4127954e-39 335 223
0.020955838 0.74699998 0.022265578 4.9638027e-39 336 223
0.022265578 0.74699998 0.022265578 5.2400295e-39 337 223
0.023575317 0.74699998 0.022265578 5.425127e-39 338 223
0.024885058 0.74699998 0.022265578 5.5173226e-39 339 223
0.026194798 0.74699998 0.022265578 5.2407357e-39 340 223
0.027504537 0.74699998 0.022265578 5.1485401e-39 341 223
0.028891427 0.74900001 0.022325192 4.4131485e-39 342 223
0.030204674 0.74900001 0.022325192 4.3209529e-39 343 223
0.031517919 0.74900001 0.022325192 3.5873535e-39 344 223
0.032831166 0.74900001 0.022325192 3.6795491e-39 345 223
0.034189999 0.75 0.022355 3.5877192e-39 346 223
0.035505001 0.75 0.022355 3.5877192e-39 347 223
0.036918186 0.75199997 0.022414612 3.404407e-39 348 223
0.038236689 0.75199997 0.022414612 3.496604e-39 349 223
0.039660402 0.75400001 0.022474226 3.2214563e-39 350 223
0.040982414 0.75400001 0.022474226 3.1292592e-39 351 223
0.042304426 0.75400001 0.022474226 2.9466672e-39 352 223
0.043684296 0.755 0.022504034 1.8403197e-39 353 223
0.045008067 0.755 0.022504034 3.0388629e-39 354 223
0.04633183 0.755 0.022504034 1.0322318e-38 355 223
0.048034318 0.76099998 0.022682872 1.4195238e-38 356 223
-0.02824094 0.76700002 0.021516906 1.1984e-38 299 224
-0.026896132 0.76700002 0.021516906 7.5568173e-39 300 224
-0.025518013 0.76599997 0.021488851 3.5924052e-39 301 224
-0.024111839 0.764 0.021432746 5.7020993e-39 302 224
-0.022772292 0.764 0.021432746 5.2414798e-39 303 224
-0.02137664 0.76200002 0.02137664 5.8810857e-39 304 224
-0.020014299 0.76099998 0.021348584 5.6044988e-39 305 224
-0.018680012 0.76099998 0.021348584 5.3286378e-39 306 224
-0.017300138 0.759 0.02129248 5.5126689e-39 307 224
-0.015927281 0.75700003 0.021236373 5.0563697e-39 308 224
-0.014561433 0.755 0.021180267 5.4247921e-39 309 224
-0.013220133 0.75400001 0.021152213 5.4244264e-39 310 224
-0.01189812 0.75400001 0.021152213 5.516622e-39 311 224
-0.010576107 0.75400001 0.021152213 5.5173282e-39 312 224
-0.0092295464 0.75199997 0.021096105 5.5173282e-39 313 224
-0.0079110395 0.75199997 0.021096105 5.4247585e-39 314 224
-0.0065662335 0.74900001 0.021011947 5.1481702e-39 315 224
-0.0052529867 0.74900001 0.021011947 4.6875592e-39 316 224
-0.0039397399 0.74900001 0.021011947 4.3191382e-39 317 224
-0.0026194798 0.74699998 0.020955838 4.0414863e-39 318 224
-0.0013097399 0.74699998 0.020955838 4.0414863e-39 319 224
0 0.74699998 0.020955838 3.4908391e-39 320 224
0.0013097399 0.74699998 0.020955838 3.4908391e-39 321 224
0.0026194798 0.74699998 0.020955838 3.3071709e-39 322 224
0.0039292197 0.74699998 0.020955838 3.2149752e-39 323 224
0.0052389596 0.74699998 0.020955838 3.5833878e-39 324 224
0.0065486995 0.74699998 0.020955838 3.6755835e-39 325 224
0.0078584393 0.74699998 0.020955838 4.1344036e-39 326 224
0.0091681797 0.74699998 0.020955838 4.2266006e-39 327 224
0.010463892 0.74599999 0.020927785 4.9666852e-39 328 224
0.011771879 0.74599999 0.020927785 6.1652284e-39 329 224
0.013097399 0.74699998 0.020955838 5.7049565e-39 330 224
0.014387853 0.74599999 0.020927785 4.8751958e-39 331 224
0.015695838 0.74599999 0.020927785 4.4149408e-39 332 224
0.017003827 0.74599999 0.020927785 4.2305509e-39 333 224
0.018336359 0.74699998 0.020955838 4.5964607e-39 334 224
0.019646099 0.74699998 0.020955838 4.5964607e-39 335 224
0.020955838 0.74699998 0.020955838 4.9637999e-39 336 224
0.022265578 0.74699998 0.020955838 5.2403854e-39 337 224
0.023575317 0.74699998 0.020955838 5.3318594e-39 338 224
0.024885058 0.74699998 0.020955838 5.424055e-39 339 224
0.026194798 0.74699998 0.020955838 5.1474709e-39 340 224
0.027504537 0.74699998 0.020955838 5.0549152e-39 341 224
0.028814279 0.74699998 0.020955838 4.503912e-39 342 224
0.030124018 0.74699998 0.020955838 4.503912e-39 343 224
0.031517919 0.74900001 0.021011947 3.7703098e-39 344 224
0.032831166 0.74900001 0.021011947 3.7703098e-39 345 224
0.034144413 0.74900001 0.021011947 3.3118526e-39 346 224
0.035505001 0.75 0.02104 3.3118526e-39 347 224
0.036819998 0.75 0.02104 3.3125743e-39 348 224
0.038236689 0.75199997 0.021096105 3.4047713e-39 349 224
0.039660402 0.75400001 0.021152213 3.129262e-39 350 224
0.040982414 0.75400001 0.021152213 3.0370664e-39 351 224
0.042304426 0.75400001 0.021152213 3.0370664e-39 352 224
0.043684296 0.755 0.021180267 2.2991426e-39 353 224
0.045008067 0.755 0.021180267 2.4864079e-39 354 224
0.04633183 0.755 0.021180267 8.6638753e-39 355 224
0.047908079 0.759 0.02129248 1.3642783e-38 356 224
0.049238857 0.759 0.02129248 1.6316456e-38 357 224
-0.029585747 0.76700002 0.020172099 1.6595583e-38 298 225
-0.02824094 0.76700002 0.020172099 1.0326639e-38 299 225
-0.026861066 0.76599997 0.020145798 6.9089269e-39 300 225
-0.025518013 0.76599997 0.020145798 3.7742755e-39 301 225
-0.024111839 0.764 0.020093199 5.4262256e-39 302 225
-0.022772292 0.764 0.020093199 5.33403e-39 303 225
-0.02137664 0.76200002 0.0200406 5.9732785e-39 304 225
-0.020014299 0.76099998 0.020014299 5.6970518e-39 305 225
-0.01863092 0.759 0.0199617 5.3297098e-39 306 225
-0.017254554 0.75700003 0.019909101 5.2375142e-39 307 225
-0.015927281 0.75700003 0.019909101 5.1474835e-39 308 225
-0.014561433 0.755 0.0198565 5.2396792e-39 309 225
-0.013220133 0.75400001 0.019830201 5.3322307e-39 310 225
-0.01189812 0.75400001 0.019830201 5.4244264e-39 311 225
-0.01052 0.75 0.019724999 5.6080889e-39 312 225
-0.0092049995 0.75 0.019724999 5.6080889e-39 313 225
-0.00789 0.75 0.019724999 5.7002748e-39 314 225
-0.0065662335 0.74900001 0.0196987 5.6077204e-39 315 225
-0.0052529867 0.74900001 0.0196987 4.6900829e-39 316 225
-0.0039397399 0.74900001 0.0196987 4.3213004e-39 317 225
-0.0026194798 0.74699998 0.019646099 4.1365588e-39 318 225
-0.0013097399 0.74699998 0.019646099 4.0443632e-39 319 225
0 0.74699998 0.019646099 3.4011574e-39 320 225
0.0013097399 0.74699998 0.019646099 3.4933544e-39 321 225
0.0026194798 0.74699998 0.019646099 3.5855528e-39 322 225
0.0039292197 0.74699998 0.019646099 3.5855528e-39 323 225
0.0052389596 0.74699998 0.019646099 4.046524e-39 324 225
0.0065399334 0.74599999 0.019619798 4.2312754e-39 325 225
0.0078479191 0.74599999 0.019619798 4.7819226e-39 326 225
0.0091559067 0.74599999 0.019619798 4.874477e-39 327 225
0.010463892 0.74599999 0.019619798 5.7049593e-39 328 225
0.011771879 0.74599999 0.019619798 6.5347214e-39 329 225
0.013079867 0.74599999 0.019619798 5.9804686e-39 330 225
0.01434928 0.74400002 0.019567199 4.7819254e-39 331 225
0.015653761 0.74400002 0.019567199 4.3216689e-39 332 225
0.017003827 0.74599999 0.019619798 4.2294733e-39 333 225
0.018311813 0.74599999 0.019619798 4.5957419e-39 334 225
0.019619798 0.74599999 0.019619798 4.779773e-39 335 225
0.020927785 0.74599999 0.019619798 5.1463975e-39 336 225
0.022235774 0.74599999 0.019619798 5.3304301e-39 337 225
0.023543758 0.74599999 0.019619798 5.3304273e-39 338 225
0.024851745 0.74599999 0.019619798 5.0541991e-39 339 225
0.026194798 0.74699998 0.019646099 5.0541991e-39 340 225
0.027504537 0.74699998 0.019646099 5.0541991e-39 341 225
0.028814279 0.74699998 0.019646099 4.4120695e-39 342 225
0.030124018 0.74699998 0.019646099 4.4120695e-39 343 225
0.031517919 0.74900001 0.0196987 3.7699441e-39 344 225
0.032831166 0.74900001 0.0196987 3.7699441e-39 345 225
0.034144413 0.74900001 0.0196987 3.3114869e-39 346 225
0.03545766 0.74900001 0.0196987 3.495518e-39 347 225
0.036819998 0.75 0.019724999 3.1288963e-39 348 225
0.038236689 0.75199997 0.0197776 3.3129274e-39 349 225
0.039555199 0.75199997 0.0197776 3.1285404e-39 350 225
0.040982414 0.75400001 0.019830201 3.0363447e-39 351 225
0.042304426 0.75400001 0.019830201 3.1274614e-39 352 225
0.043684296 0.755 0.0198565 2.6664832e-39 353 225
0.045008067 0.755 0.0198565 2.0257885e-39 354 225
0.046454567 0.75700003 0.019909101 6.5433744e-39 355 225
0.047908079 0.759 0.0199617 1.2721908e-38 356 225
0.049238857 0.759 0.0199617 1.6040951e-38 357 225
-0.029585747 0.76700002 0.018827293 1.6318273e-38 298 226
-0.028204117 0.76599997 0.018802745 9.3114055e-39 299 226
-0.026861066 0.76599997 0.018802745 5.9862461e-39 300 226
-0.025451386 0.764 0.018753653 3.6817141e-39 301 226
-0.024111839 0.764 0.018753653 5.9757827e-39 302 226
-0.022772292 0.764 0.018753653 6.5289564e-39 303 226
-0.02137664 0.76200002 0.01870456 7.2603908e-39 304 226
-0.020014299 0.76099998 0.018680012 6.8916097e-39 305 226
-0.01863092 0.759 0.01863092 6.0636623e-39 306 226
-0.017254554 0.75700003 0.018581826 5.9714667e-39 307 226
-0.015927281 0.75700003 0.018581826 4.8712526e-39 308 226
-0.014561433 0.755 0.018532733 5.2396764e-39 309 226
-0.013220133 0.75400001 0.018508185 4.8744896e-39 310 226
-0.011866559 0.75199997 0.018459093 4.8744896e-39 311 226
-0.01052 0.75 0.018409999 5.1499877e-39 312 226
-0.0092049995 0.75 0.018409999 5.1499877e-39 313 226
-0.00789 0.75 0.018409999 5.2418175e-39 314 226
-0.0065662335 0.74900001 0.018385453 5.1492632e-39 315 226
-0.0052529867 0.74900001 0.018385453 5.3325656e-39 316 226
-0.0039292197 0.74699998 0.018336359 5.3325656e-39 317 226
-0.0026194798 0.74699998 0.018336359 5.1488876e-39 318 226
-0.0013097399 0.74699998 0.018336359 5.1488876e-39 319 226
0 0.74699998 0.018336359 4.7808324e-39 320 226
0.0013079866 0.74599999 0.018311813 4.7808324e-39 321 226
0.0026159731 0.74599999 0.018311813 4.5067706e-39 322 226
0.0039239596 0.74599999 0.018311813 4.875193e-39 323 226
0.0052319462 0.74599999 0.018311813 5.3376033e-39 324 226
0.0065399334 0.74599999 0.018311813 5.5219946e-39 325 226
0.0078479191 0.74599999 0.018311813 5.7960577e-39 326 226
0.0091559067 0.74599999 0.018311813 6.072646e-39 327 226
0.01043584 0.74400002 0.01826272 5.983323e-39 328 226
0.011740319 0.74400002 0.01826272 5.8911274e-39 329 226
0.013079867 0.74599999 0.018311813 5.8857366e-39 330 226
0.01434928 0.74400002 0.01826272 5.1481702e-39 331 226
0.015653761 0.74400002 0.01826272 4.6872116e-39 332 226
0.016958239 0.74400002 0.01826272 4.6872116e-39 333 226
0.018311813 0.74599999 0.018311813 4.9623664e-39 334 226
0.019619798 0.74599999 0.018311813 4.9623664e-39 335 226
0.020927785 0.74599999 0.018311813 5.0541991e-39 336 226
0.022235774 0.74599999 0.018311813 5.0541991e-39 337 226
0.023543758 0.74599999 0.018311813 5.2375114e-39 338 226
0.024851745 0.74599999 0.018311813 5.1453157e-39 339 226
0.026159734 0.74599999 0.018311813 4.9616475e-39 340 226
0.027467718 0.74599999 0.018311813 4.9616475e-39 341 226
0.028814279 0.74699998 0.018336359 4.5031903e-39 342 226
0.030124018 0.74699998 0.018336359 4.5031903e-39 343 226
0.031433757 0.74699998 0.018336359 4.1362085e-39 344 226
0.032743499 0.74699998 0.018336359 4.2284041e-39 345 226
0.034144413 0.74900001 0.018385453 3.4948019e-39 346 226
0.03545766 0.74900001 0.018385453 3.4948019e-39 347 226
0.036819998 0.75 0.018409999 3.0370608e-39 348 226
0.038236689 0.75199997 0.018459093 3.0370608e-39 349 226
0.039555199 0.75199997 0.018459093 3.1274614e-39 350 226
0.040873703 0.75199997 0.018459093 3.0352657e-39 351 226
0.042304426 0.75400001 0.018508185 3.0352629e-39 352 226
0.043626439 0.75400001 0.018508185 2.7590348e-39 353 226
0.044948451 0.75400001 0.018508185 2.2994957e-39 354 226
0.04633183 0.755 0.018532733 5.5263428e-39 355 226
0.04778184 0.75700003 0.018581826 1.1155659e-38 356 226
0.049109112 0.75700003 0.018581826 1.5857276e-38 357 226
-0.029585747 0.76700002 0.017482487 1.5673623e-38 298 227
-0.028204117 0.76599997 0.017459691 7.9291899e-39 299 227
-0.026861066 0.76599997 0.017459691 5.6156517e-39 300 227
-0.025451386 0.764 0.017414106 4.048326e-39 301 227
-0.02404872 0.76200002 0.01736852 6.2477018e-39 302 227
-0.02271268 0.76200002 0.01736852 6.9856256e-39 303 227
-0.02137664 0.76200002 0.01736852 8.2673723e-39 304 227
-0.020014299 0.76099998 0.017345725 7.9907854e-39 305 227
-0.01863092 0.759 0.017300138 5.8825178e-39 306 227
-0.017254554 0.75700003 0.017254554 5.2371484e-39 307 227
-0.015885198 0.755 0.017208965 4.9634524e-39 308 227
-0.014542146 0.75400001 0.017186172 5.2396792e-39 309 227
-0.013220133 0.75400001 0.017186172 4.8744868e-39 310 227
-0.011866559 0.75199997 0.017140586 5.0592382e-39 311 227
-0.01052 0.75 0.017095 5.0585151e-39 312 227
-0.0092049995 0.75 0.017095 5.0585151e-39 313 227
-0.0078794798 0.74900001 0.017072206 5.4247739e-39 314 227
-0.0065662335 0.74900001 0.017072206 5.5173282e-39 315 227
-0.0052529867 0.74900001 0.017072206 5.4254927e-39 316 227
-0.0039292197 0.74699998 0.017026618 5.4254927e-39 317 227
-0.0026194798 0.74699998 0.017026618 4.874477e-39 318 227
-0.0013097399 0.74699998 0.017026618 4.874477e-39 319 227
0 0.74699998 0.017026618 4.6911591e-39 320 227
0.0013079866 0.74599999 0.017003827 4.5989635e-39 321 227
0.0026159731 0.74599999 0.017003827 4.5986103e-39 322 227
0.0039239596 0.74599999 0.017003827 4.9673915e-39 323 227
0.0052319462 0.74599999 0.017003827 5.6116861e-39 324 227
0.0065223998 0.74400002 0.016958239 5.5194904e-39 325 227
0.0078268806 0.74400002 0.016958239 6.2538087e-39 326 227
0.0091313599 0.74400002 0.016958239 6.4385587e-39 327 227
0.01043584 0.74400002 0.016958239 6.0733677e-39 328 227
0.011740319 0.74400002 0.016958239 6.0733677e-39 329 227
0.0130448 0.74400002 0.016958239 5.6123923e-39 330 227
0.01434928 0.74400002 0.016958239 4.6900773e-39 331 227
0.015611678 0.74199998 0.016912652 4.7801233e-39 332 227
0.016912652 0.74199998 0.016912652 4.5038966e-39 333 227
0.01826272 0.74400002 0.016958239 4.7794045e-39 334 227
0.019567199 0.74400002 0.016958239 4.8719588e-39 335 227
0.02087168 0.74400002 0.016958239 4.9641559e-39 336 227
0.022235774 0.74599999 0.017003827 4.8719588e-39 337 227
0.023480639 0.74400002 0.016958239 4.9627195e-39 338 227
0.02478512 0.74400002 0.016958239 4.9627195e-39 339 227
0.026159734 0.74599999 0.017003827 4.7786884e-39 340 227
0.027467718 0.74599999 0.017003827 4.7786884e-39 341 227
0.028775707 0.74599999 0.017003827 4.5035435e-39 342 227
0.030124018 0.74699998 0.017026618 4.5035435e-39 343 227
0.031433757 0.74699998 0.017026618 3.9528934e-39 344 227
0.032743499 0.74699998 0.017026618 3.9528934e-39 345 227
0.034144413 0.74900001 0.017072206 3.4962271e-39 346 227
0.03545766 0.74900001 0.017072206 3.3118372e-39 347 227
0.036819998 0.75 0.017095 3.1281648e-39 348 227
0.038135 0.75 0.017095 3.2203604e-39 349 227
0.039555199 0.75199997 0.017140586 3.1281648e-39 350 227
0.040873703 0.75199997 0.017140586 3.0359692e-39 351 227
0.042304426 0.75400001 0.017186172 3.0348972e-39 352 227
0.043626439 0.75400001 0.017186172 3.1270928e-39 353 227
0.044948451 0.75400001 0.017186172 2.3005775e-39 354 227
0.04633183 0.755 0.017208965 3.5913164e-39 355 227
0.047655597 0.755 0.017208965 9.4046633e-39 356 227
0.049109112 0.75700003 0.017254554 1.5581412e-38 357 227
-0.028204117 0.76599997 0.016116638 7.7437112e-39 299 228
-0.026861066 0.76599997 0.016116638 5.9801015e-39 300 228
-0.025451386 0.764 0.016074561 5.5191247e-39 301 228
-0.02404872 0.76200002 0.01603248 8.649809e-39 302 228
-0.02271268 0.76200002 0.01603248 1.077031e-38 303 228
-0.02137664 0.76200002 0.01603248 1.1033222e-38 304 228
-0.020014299 0.76099998 0.016011439 8.7283322e-39 305 228
-0.01863092 0.759 0.015969358 7.7141817e-39 306 228
-0.017254554 0.75700003 0.015927281 7.0713332e-39 307 228
-0.015885198 0.755 0.015885198 5.0545648e-39 308 228
-0.014542146 0.75400001 0.01586416 5.2393162e-39 309 228
-0.013220133 0.75400001 0.01586416 4.6911773e-39 310 228
-0.011866559 0.75199997 0.015822079 4.87557e-39 311 228
-0.01052 0.75 0.01578 4.8766392e-39 312 228
-0.0092049995 0.75 0.01578 4.9691935e-39 313 228
-0.0078794798 0.74900001 0.01575896 5.3343803e-39 314 228
-0.0065662335 0.74900001 0.01575896 5.3343803e-39 315 228
-0.0052529867 0.74900001 0.01575896 5.5169723e-39 316 228
-0.0039292197 0.74699998 0.015716879 5.7932005e-39 317 228
-0.0026194798 0.74699998 0.015716879 5.334732e-39 318 228
-0.0013097399 0.74699998 0.015716879 5.1499821e-39 319 228
0 0.74699998 0.015716879 4.8726791e-39 320 228
0.0013079866 0.74599999 0.015695838 4.8726791e-39 321 228
0.0026159731 0.74599999 0.015695838 4.5957447e-39 322 228
0.0039239596 0.74599999 0.015695838 4.7797758e-39 323 228
0.0052319462 0.74599999 0.015695838 4.9630993e-39 324 228
0.0065223998 0.74400002 0.015653761 4.8709023e-39 325 228
0.0078268806 0.74400002 0.015653761 5.1474807e-39 326 228
0.0091313599 0.74400002 0.015653761 5.3322307e-39 327 228
0.010407786 0.74199998 0.015611678 5.8875373e-39 328 228
0.01170876 0.74199998 0.015611678 6.5329067e-39 329 228
0.0130448 0.74400002 0.015653761 6.3488601e-39 330 228
0.01434928 0.74400002 0.015653761 5.7960451e-39 331 228
0.015611678 0.74199998 0.015611678 5.3336348e-39 332 228
0.016912652 0.74199998 0.015611678 5.149245e-39 333 228
0.01826272 0.74400002 0.015653761 4.9641517e-39 334 228
0.019567199 0.74400002 0.015653761 4.9641517e-39 335 228
0.02087168 0.74400002 0.015653761 5.1474681e-39 336 228
0.022176161 0.74400002 0.015653761 5.1474681e-39 337 228
0.023480639 0.74400002 0.015653761 5.1467507e-39 338 228
0.02478512 0.74400002 0.015653761 5.0541963e-39 339 228
0.026089599 0.74400002 0.015653761 4.7794101e-39 340 228
0.027467718 0.74599999 0.015695838 4.5946601e-39 341 228
0.028775707 0.74599999 0.015695838 4.5035435e-39 342 228
0.03008369 0.74599999 0.015695838 4.5035435e-39 343 228
0.031433757 0.74699998 0.015716879 3.9528906e-39 344 228
0.032743499 0.74699998 0.015716879 3.9528906e-39 345 228
0.034144413 0.74900001 0.01575896 3.4951523e-39 346 228
0.03545766 0.74900001 0.01575896 3.4951523e-39 347 228
0.036819998 0.75 0.01578 3.2196444e-39 348 228
0.038135 0.75 0.01578 3.2196444e-39 349 228
0.039555199 0.75199997 0.015822079 2.852301e-39 350 228
0.040873703 0.75199997 0.015822079 2.7601054e-39 351 228
0.042304426 0.75400001 0.01586416 2.8512318e-39 352 228
0.043626439 0.75400001 0.01586416 3.1274586e-39 353 228
0.044948451 0.75400001 0.01586416 2.5760924e-39 354 228
0.04633183 0.755 0.015885198 2.4835381e-39 355 228
0.047655597 0.755 0.015885198 8.6642256e-39 356 228
0.049109112 0.75700003 0.015927281 1.5671092e-38 357 228
-0.028204117 0.76599997 0.014773586 7.9263032e-39 299 229
-0.026861066 0.76599997 0.014773586 5.5202121e-39 300 229
-0.025518013 0.76599997 0.014773586 7.2722892e-39 301 229
-0.024111839 0.764 0.014735013 1.170668e-38 302 229
-0.022772292 0.764 0.014735013 1.5486342e-38 303 229
-0.02137664 0.76200002 0.01469644 1.3628743e-38 304 229
-0.020014299 0.76099998 0.014677152 9.1111571e-39 305 229
-0.01863092 0.759 0.014638579 8.7250896e-39 306 229
-0.017254554 0.75700003 0.014600007 7.4386752e-39 307 229
-0.015885198 0.755 0.014561433 5.4222628e-39 308 229
-0.014561433 0.755 0.014561433 5.329707e-39 309 229
-0.013220133 0.75400001 0.014542146 4.8734176e-39 310 229
-0.011866559 0.75199997 0.014503572 5.3343957e-39 311 229
-0.01052 0.75 0.014465 5.061036e-39 312 229
-0.0092049995 0.75 0.014465 5.4294598e-39 313 229
-0.0078794798 0.74900001 0.014445714 5.6116889e-39 314 229
-0.0065662335 0.74900001 0.014445714 5.4272976e-39 315 229
-0.0052529867 0.74900001 0.014445714 5.7020894e-39 316 229
-0.0039292197 0.74699998 0.014407139 5.5173395e-39 317 229
-0.0026194798 0.74699998 0.014407139 5.0585151e-39 318 229
-0.0013097399 0.74699998 0.014407139 4.7819282e-39 319 229
0 0.74699998 0.014407139 4.8712498e-39 320 229
0.0013079866 0.74599999 0.014387853 4.5946629e-39 321 229
0.00260896 0.74400002 0.01434928 4.7761899e-39 322 229
0.0039134403 0.74400002 0.01434928 4.7761899e-39 323 229
0.0052179201 0.74400002 0.01434928 4.6836383e-39 324 229
0.0065048663 0.74199998 0.014310705 4.5918014e-39 325 229
0.0078058392 0.74199998 0.014310705 4.5010421e-39 326 229
0.009106813 0.74199998 0.014310705 4.6857921e-39 327 229
0.010407786 0.74199998 0.014310705 5.4265731e-39 328 229
0.01170876 0.74199998 0.014310705 6.6251149e-39 329 229
0.013009733 0.74199998 0.014310705 6.4439453e-39 330 229
0.014310705 0.74199998 0.014310705 5.5223477e-39 331 229
0.015611678 0.74199998 0.014310705 5.4279983e-39 332 229
0.016912652 0.74199998 0.014310705 4.8748245e-39 333 229
0.01826272 0.74400002 0.01434928 4.9655908e-39 334 229
0.019567199 0.74400002 0.01434928 4.7815597e-39 335 229
0.02087168 0.74400002 0.01434928 5.147115e-39 336 229
0.022176161 0.74400002 0.01434928 5.054918e-39 337 229
0.023480639 0.74400002 0.01434928 4.9627223e-39 338 229
0.02478512 0.74400002 0.01434928 4.7786912e-39 339 229
0.026089599 0.74400002 0.01434928 4.411345e-39 340 229
0.027467718 0.74599999 0.014387853 4.411345e-39 341 229
0.028775707 0.74599999 0.014387853 4.411345e-39 342 229
0.03008369 0.74599999 0.014387853 4.411345e-39 343 229
0.031433757 0.74699998 0.014407139 4.0450862e-39 344 229
0.032743499 0.74699998 0.014407139 3.9528906e-39 345 229
0.034144413 0.74900001 0.014445714 3.5862717e-39 346 229
0.03545766 0.74900001 0.014445714 3.6784673e-39 347 229
0.036819998 0.75 0.014465 3.2192884e-39 348 229
0.038135 0.75 0.014465 3.2192884e-39 349 229
0.039555199 0.75199997 0.014503572 2.852301e-39 350 229
0.040873703 0.75199997 0.014503572 2.7601054e-39 351 229
0.042304426 0.75400001 0.014542146 3.0356189e-39 352 229
0.043626439 0.75400001 0.014542146 3.1278145e-39 353 229
0.044948451 0.75400001 0.014542146 2.5771616e-39 354 229
0.04633183 0.755 0.014561433 1.3786184e-39 355 229
0.047655597 0.755 0.014561433 7.9241396e-39 356 229
0.048979364 0.755 0.014561433 1.5576376e-38 357 229
-0.026861066 0.76599997 0.013430533 5.7092893e-39 300 230
-0.025518013 0.76599997 0.013430533 9.6737014e-39 301 230
-0.024111839 0.764 0.013395466 1.327222e-38 302 230
-0.022772292 0.764 0.013395466 1.6499067e-38 303 230
-0.02137664 0.76200002 0.0133604 1.3643501e-38 304 230
-0.020014299 0.76099998 0.013342866 9.5872539e-39 305 230
-0.01863092 0.759 0.0133078 1.0843787e-38 306 230
-0.017254554 0.75700003 0.013272733 9.0924316e-39 307 230
-0.015885198 0.755 0.013237666 6.3366548e-39 308 230
-0.014561433 0.755 0.013237666 6.3366548e-39 309 230
-0.013220133 0.75400001 0.013220133 4.7808688e-39 310 230
-0.011866559 0.75199997 0.013185065 5.3340426e-39 311 230
-0.010548052 0.75199997 0.013185065 5.0649989e-39 312 230
-0.0092049995 0.75 0.01315 5.4337814e-39 313 230
-0.00789 0.75 0.01315 5.8915198e-39 314 230
-0.0065662335 0.74900001 0.013132467 5.6145727e-39 315 230
-0.0052529867 0.74900001 0.013132467 5.5209422e-39 316 230
-0.0039292197 0.74699998 0.013097399 5.2439952e-39 317 230
-0.0026194798 0.74699998 0.013097399 5.059957e-39 318 230
-0.0013097399 0.74699998 0.013097399 4.7833701e-39 319 230
0 0.74699998 0.013097399 4.7808534e-39 320 230
0.0013079866 0.74599999 0.013079867 4.5042651e-39 321 230
0.00260896 0.74400002 0.0130448 4.5932378e-39 322 230
0.0039134403 0.74400002 0.0130448 4.4088451e-39 323 230
0.0052179201 0.74400002 0.0130448 4.0407871e-39 324 230
0.0065048663 0.74199998 0.013009733 4.0407871e-39 325 230
0.0078058392 0.74199998 0.013009733 4.1326183e-39 326 230
0.009106813 0.74199998 0.013009733 4.5932378e-39 327 230
0.010407786 0.74199998 0.013009733 5.1517841e-39 328 230
0.01170876 0.74199998 0.013009733 6.6269142e-39 329 230
0.013009733 0.74199998 0.013009733 6.6268946e-39 330 230
0.014310705 0.74199998 0.013009733 5.7049383e-39 331 230
0.015611678 0.74199998 0.013009733 5.7931837e-39 332 230
0.016912652 0.74199998 0.013009733 5.4247613e-39 333 230
0.01826272 0.74400002 0.0130448 5.2396638e-39 334 230
0.019567199 0.74400002 0.0130448 5.1474681e-39 335 230
0.02087168 0.74400002 0.0130448 5.0549208e-39 336 230
0.022176161 0.74400002 0.0130448 4.9623664e-39 337 230
0.023480639 0.74400002 0.0130448 4.6868557e-39 338 230
0.02478512 0.74400002 0.0130448 4.5946601e-39 339 230
0.026089599 0.74400002 0.0130448 4.3191494e-39 340 230
0.027467718 0.74599999 0.013079867 4.3191494e-39 341 230
0.028775707 0.74599999 0.013079867 4.411345e-39 342 230
0.03008369 0.74599999 0.013079867 4.411345e-39 343 230
0.031433757 0.74699998 0.013097399 4.1362029e-39 344 230
0.032743499 0.74699998 0.013097399 4.0440072e-39 345 230
0.034144413 0.74900001 0.013132467 3.5862717e-39 346 230
0.03545766 0.74900001 0.013132467 3.4022406e-39 347 230
0.036819998 0.75 0.01315 3.3104079e-39 348 230
0.038135 0.75 0.01315 3.3104079e-39 349 230
0.039555199 0.75199997 0.013185065 3.0349e-39 350 230
0.040873703 0.75199997 0.013185065 2.8501486e-39 351 230
0.042304426 0.75400001 0.013220133 3.0352629e-39 352 230
0.043626439 0.75400001 0.013220133 3.2200129e-39 353 230
0.044948451 0.75400001 0.013220133 3.036695e-39 354 230
0.04633183 0.755 0.013237666 1.7459562e-39 355 230
0.047655597 0.755 0.013237666 7.6461038e-39 356 230
0.048979364 0.755 0.013237666 1.5206145e-38 357 230
-0.029817186 0.773 0.012197939 1.6040598e-38 298 231
-0.028388219 0.77100003 0.01216638 8.9415342e-39 299 231
-0.026896132 0.76700002 0.01210326 6.9946429e-39 300 231
-0.025518013 0.76599997 0.012087479 1.2526381e-38 301 231
-0.024111839 0.764 0.01205592 1.3552054e-38 302 231
-0.022772292 0.764 0.01205592 1.511938e-38 303 231
-0.02137664 0.76200002 0.01202436 1.3554921e-38 304 231
-0.020014299 0.76099998 0.012008579 1.1434782e-38 305 231
-0.018680012 0.76099998 0.012008579 1.1957696e-38 306 231
-0.017254554 0.75700003 0.01194546 9.0996315e-39 307 231
-0.015885198 0.755 0.011913899 7.8978569e-39 308 231
-0.014561433 0.755 0.011913899 7.5305107e-39 309 231
-0.013220133 0.75400001 0.01189812 5.3293735e-39 310 231
-0.011866559 0.75199997 0.011866559 6.2516885e-39 311 231
-0.010548052 0.75199997 0.011866559 5.0671667e-39 312 231
-0.0092049995 0.75 0.011835 6.1735143e-39 313 231
-0.00789 0.75 0.011835 5.9894719e-39 314 231
-0.0065662335 0.74900001 0.01181922 5.5284952e-39 315 231
-0.0052529867 0.74900001 0.01181922 5.7085704e-39 316 231
-0.0039292197 0.74699998 0.011787659 4.9710054e-39 317 231
-0.0026194798 0.74699998 0.011787659 5.4298115e-39 318 231
-0.0013097399 0.74699998 0.011787659 5.1535848e-39 319 231
0 0.74699998 0.011787659 5.3368816e-39 320 231
0.0013079866 0.74599999 0.011771879 4.967739e-39 321 231
0.00260896 0.74400002 0.011740319 4.7794045e-39 322 231
0.0039134403 0.74400002 0.011740319 4.5028176e-39 323 231
0.0052179201 0.74400002 0.011740319 4.4091982e-39 324 231
0.0065048663 0.74199998 0.01170876 4.1326127e-39 325 231
0.0078058392 0.74199998 0.01170876 4.3170026e-39 326 231
0.009106813 0.74199998 0.01170876 4.6857865e-39 327 231
0.010407786 0.74199998 0.01170876 5.0596011e-39 328 231
0.01170876 0.74199998 0.01170876 5.8897205e-39 329 231
0.013009733 0.74199998 0.01170876 6.0719426e-39 330 231
0.014310705 0.74199998 0.01170876 5.5191275e-39 331 231
0.015611678 0.74199998 0.01170876 5.2403826e-39 332 231
0.016912652 0.74199998 0.01170876 4.9641559e-39 333 231
0.018213626 0.74199998 0.01170876 4.8712498e-39 334 231
0.0195146 0.74199998 0.01170876 4.7790541e-39 335 231
0.02087168 0.74400002 0.011740319 4.9623692e-39 336 231
0.022176161 0.74400002 0.011740319 4.7783381e-39 337 231
0.023480639 0.74400002 0.011740319 4.3198711e-39 338 231
0.02478512 0.74400002 0.011740319 4.1358399e-39 339 231
0.026089599 0.74400002 0.011740319 4.1358371e-39 340 231
0.027467718 0.74599999 0.011771879 4.1358371e-39 341 231
0.028775707 0.74599999 0.011771879 4.1358399e-39 342 231
0.03008369 0.74599999 0.011771879 4.3198711e-39 343 231
0.031433757 0.74699998 0.011787659 4.1362029e-39 344 231
0.032743499 0.74699998 0.011787659 4.1362029e-39 345 231
0.034144413 0.74900001 0.01181922 3.5855528e-39 346 231
0.03545766 0.74900001 0.01181922 3.4933572e-39 347 231
0.036819998 0.75 0.011835 3.3096918e-39 348 231
0.038135 0.75 0.011835 3.2174948e-39 349 231
0.039555199 0.75199997 0.011866559 2.9416282e-39 350 231
0.040982414 0.75400001 0.01189812 2.9416282e-39 351 231
0.042304426 0.75400001 0.01189812 2.759755e-39 352 231
0.043626439 0.75400001 0.01189812 3.3129274e-39 353 231
0.044948451 0.75400001 0.01189812 3.0377642e-39 354 231
0.04633183 0.755 0.011913899 2.0239724e-39 355 231
0.047655597 0.755 0.011913899 8.0141576e-39 356 231
-0.029817186 0.773 0.010842613 1.6132793e-38 298 232
-0.028388219 0.77100003 0.01081456 1.0416304e-38 299 232
-0.026896132 0.76700002 0.010758453 8.3754222e-39 300 232
-0.025518013 0.76599997 0.010744425 1.3999716e-38 301 232
-0.024111839 0.764 0.010716373 1.3921207e-38 302 232
-0.022772292 0.764 0.010716373 1.4658772e-38 303 232
-0.02137664 0.76200002 0.01068832 1.3280506e-38 304 232
-0.020014299 0.76099998 0.010674292 1.2358549e-38 305 232
-0.018680012 0.76099998 0.010674292 1.2981932e-38 306 232
-0.017254554 0.75700003 0.010618187 9.5703346e-39 307 232
-0.015885198 0.755 0.010590133 9.5512587e-39 308 232
-0.014561433 0.755 0.010590133 9.1835524e-39 309 232
-0.013220133 0.75400001 0.010576107 5.6048688e-39 310 232
-0.011866559 0.75199997 0.010548052 6.2502382e-39 311 232
-0.010548052 0.75199997 0.010548052 5.2497657e-39 312 232
-0.0092049995 0.75 0.01052 6.2635575e-39 313 232
-0.00789 0.75 0.01052 6.2685966e-39 314 232
-0.0065662335 0.74900001 0.010505973 6.4529878e-39 315 232
-0.0052529867 0.74900001 0.010505973 6.5426681e-39 316 232
-0.0039292197 0.74699998 0.010477919 5.8051031e-39 317 232
-0.0026194798 0.74699998 0.010477919 5.2497657e-39 318 232
-0.0013097399 0.74699998 0.010477919 5.1575701e-39 319 232
0 0.74699998 0.010477919 6.0762768e-39 320 232
0.0013079866 0.74599999 0.010463892 5.2465161e-39 321 232
0.0026159731 0.74599999 0.010463892 4.9663321e-39 322 232
0.0039134403 0.74400002 0.01043584 4.8741364e-39 323 232
0.0052179201 0.74400002 0.01043584 4.2298502e-39 324 232
0.0065048663 0.74199998 0.010407786 4.0454576e-39 325 232
0.0078058392 0.74199998 0.010407786 4.3191648e-39 326 232
0.009106813 0.74199998 0.010407786 4.5039148e-39 327 232
0.010407786 0.74199998 0.010407786 4.87197e-39 328 232
0.01170876 0.74199998 0.010407786 5.2411113e-39 329 232
0.013009733 0.74199998 0.010407786 5.1478311e-39 330 232
0.014310705 0.74199998 0.010407786 4.9637999e-39 331 232
0.015611678 0.74199998 0.010407786 4.9623664e-39 332 232
0.016912652 0.74199998 0.010407786 4.9623664e-39 333 232
0.018213626 0.74199998 0.010407786 4.7779822e-39 334 232
0.0195146 0.74199998 0.010407786 4.7779822e-39 335 232
0.02087168 0.74400002 0.01043584 4.4113506e-39 336 232
0.022176161 0.74400002 0.01043584 4.4113506e-39 337 232
0.023480639 0.74400002 0.01043584 3.8606922e-39 338 232
0.02478512 0.74400002 0.01043584 3.9532465e-39 339 232
0.026089599 0.74400002 0.01043584 3.9528906e-39 340 232
0.027467718 0.74599999 0.010463892 3.9528906e-39 341 232
0.028775707 0.74599999 0.010463892 4.2266034e-39 342 232
0.03008369 0.74599999 0.010463892 4.3187991e-39 343 232
0.031391677 0.74599999 0.010463892 4.1351337e-39 344 232
0.032743499 0.74699998 0.010477919 4.3191648e-39 345 232
0.034053236 0.74699998 0.010477919 3.5859158e-39 346 232
0.03545766 0.74900001 0.010505973 3.4018846e-39 347 232
0.036770906 0.74900001 0.010505973 3.2174892e-39 348 232
0.038135 0.75 0.01052 3.1252935e-39 349 232
0.039555199 0.75199997 0.010548052 2.8497857e-39 350 232
0.040982414 0.75400001 0.010576107 2.9419813e-39 351 232
0.042304426 0.75400001 0.010576107 2.9444994e-39 352 232
0.043684296 0.755 0.010590133 3.1288907e-39 353 232
0.045008067 0.755 0.010590133 3.406181e-39 354 232
0.04633183 0.755 0.010590133 3.0373985e-39 355 232
0.04778184 0.75700003 0.010618187 8.5669685e-39 356 232
-0.028461859 0.773 0.0094872871 1.1338615e-38 299 233
-0.026896132 0.76700002 0.0094136465 7.7415616e-39 300 233
-0.025518013 0.76599997 0.0094013726 1.1705974e-38 301 233
-0.024174958 0.76599997 0.0094013726 1.3553513e-38 302 233
-0.022772292 0.764 0.0093768267 1.4291437e-38 303 233
-0.02137664 0.76200002 0.0093522798 1.3280156e-38 304 233
-0.020014299 0.76099998 0.0093400059 1.2819178e-38 305 233
-0.01863092 0.759 0.00931546 1.3361157e-38 306 233
-0.017254554 0.75700003 0.0092909131 1.0042114e-38 307 233
-0.015885198 0.755 0.0092663663 1.0935985e-38 308 233
-0.014561433 0.755 0.0092663663 8.9998786e-39 309 233
-0.013220133 0.75400001 0.0092540924 5.5101424e-39 310 233
-0.011866559 0.75199997 0.0092295464 6.6139788e-39 311 233
-0.010548052 0.75199997 0.0092295464 4.694106e-39 312 233
-0.0092049995 0.75 0.0092049995 5.5238667e-39 313 233
-0.00789 0.75 0.0092049995 5.713653e-39 314 233
-0.0065662335 0.74900001 0.0091927266 7.0965874e-39 315 233
-0.0052529867 0.74900001 0.0091927266 7.743026e-39 316 233
-0.0039397399 0.74900001 0.0091927266 7.1898522e-39 317 233
-0.0026194798 0.74699998 0.0091681797 5.8087198e-39 318 233
-0.0013097399 0.74699998 0.0091681797 5.6239685e-39 319 233
0 0.74699998 0.0091681797 7.8308874e-39 320 233
0.0013079866 0.74599999 0.0091559067 7.6464948e-39 321 233
0.0026159731 0.74599999 0.0091559067 6.9045927e-39 322 233
0.0039134403 0.74400002 0.0091313599 5.4294626e-39 323 233
0.0052179201 0.74400002 0.0091313599 5.4262228e-39 324 233
0.0065223998 0.74400002 0.0091313599 5.2418302e-39 325 233
0.0078058392 0.74199998 0.009106813 4.7819282e-39 326 233
0.009106813 0.74199998 0.009106813 4.4131457e-39 327 233
0.010407786 0.74199998 0.009106813 4.7787038e-39 328 233
0.01170876 0.74199998 0.009106813 4.5943126e-39 329 233
0.013009733 0.74199998 0.009106813 4.5017638e-39 330 233
0.014310705 0.74199998 0.009106813 4.5017638e-39 331 233
0.015611678 0.74199998 0.009106813 4.5031959e-39 332 233
0.016912652 0.74199998 0.009106813 4.5031959e-39 333 233
0.018213626 0.74199998 0.009106813 4.5031931e-39 334 233
0.0195146 0.74199998 0.009106813 4.5031931e-39 335 233
0.02087168 0.74400002 0.0091313599 4.3195179e-39 336 233
0.022176161 0.74400002 0.0091313599 4.3195179e-39 337 233
0.023480639 0.74400002 0.0091313599 3.9528934e-39 338 233
0.02478512 0.74400002 0.0091313599 3.8606978e-39 339 233
0.026089599 0.74400002 0.0091313599 4.2266062e-39 340 233
0.027467718 0.74599999 0.0091559067 4.2266062e-39 341 233
0.028775707 0.74599999 0.0091559067 4.2262531e-39 342 233
0.03008369 0.74599999 0.0091559067 4.2262531e-39 343 233
0.031391677 0.74599999 0.0091559067 3.8599915e-39 344 233
0.032743499 0.74699998 0.0091681797 3.9521872e-39 345 233
0.034053236 0.74699998 0.0091681797 3.8610635e-39 346 233
0.03545766 0.74900001 0.0091927266 3.7688679e-39 347 233
0.036770906 0.74900001 0.0091927266 3.4008042e-39 348 233
0.038135 0.75 0.0092049995 3.1245775e-39 349 233
0.039555199 0.75199997 0.0092295464 2.5739246e-39 350 233
0.040873703 0.75199997 0.0092295464 2.8501514e-39 351 233
0.042304426 0.75400001 0.0092540924 2.5768057e-39 352 233
0.043684296 0.755 0.0092663663 3.3143707e-39 353 233
0.045008067 0.755 0.0092663663 3.4083418e-39 354 233
0.04633183 0.755 0.0092663663 3.6852888e-39 355 233
0.047655597 0.755 0.0092663663 9.4881989e-39 356 233
-0.026966266 0.76899999 0.0080898795 1.0043929e-38 300 234
-0.025617953 0.76899999 0.0080898795 1.0689298e-38 301 234
-0.024174958 0.76599997 0.0080583189 1.2172366e-38 302 234
-0.02271268 0.76200002 0.0080162399 1.3647497e-38 303 234
-0.021348584 0.76099998 0.0080057196 1.2634789e-38 304 234
-0.020014299 0.76099998 0.0080057196 1.2357842e-38 305 234
-0.01863092 0.759 0.0079846792 1.3736796e-38 306 234
-0.017254554 0.75700003 0.0079636406 1.1708492e-38 307 234
-0.015927281 0.75700003 0.0079636406 1.2236808e-38 308 234
-0.014561433 0.755 0.0079425992 9.3783834e-39 309 234
-0.013220133 0.75400001 0.00793208 6.3366506e-39 310 234
-0.01189812 0.75400001 0.00793208 7.072422e-39 311 234
-0.010548052 0.75199997 0.0079110395 4.7823234e-39 312 234
-0.0092049995 0.75 0.00789 4.874519e-39 313 234
-0.00789 0.75 0.00789 3.8704592e-39 314 234
-0.0065662335 0.74900001 0.0078794798 5.3455893e-39 315 234
-0.0052529867 0.74900001 0.0078794798 7.0994713e-39 316 234
-0.0039292197 0.74699998 0.0078584393 8.8515484e-39 317 234
-0.0026194798 0.74699998 0.0078584393 9.0402458e-39 318 234
-0.0013097399 0.74699998 0.0078584393 9.7781696e-39 319 234
0 0.74699998 0.0078584393 1.124646e-38 320 234
0.0013079866 0.74599999 0.0078479191 1.0324504e-38 321 234
0.00260896 0.74400002 0.0078268806 8.9340106e-39 322 234
0.0039134403 0.74400002 0.0078268806 6.1681417e-39 323 234
0.0052179201 0.74400002 0.0078268806 5.3354901e-39 324 234
0.0065223998 0.74400002 0.0078268806 5.1510989e-39 325 234
0.0078268806 0.74400002 0.0078268806 4.8741421e-39 326 234
0.0091313599 0.74400002 0.0078268806 4.5053609e-39 327 234
0.010407786 0.74199998 0.0078058392 4.777985e-39 328 234
