# .PCD v.7 - Point Cloud Data file format
FIELDS x y z rgb imX imY
SIZE 4 4 4 4 4 4
TYPE F F F F F F
COUNT 1 1 1 1 1 1
WIDTH 832
HEIGHT 1
VIEWPOINT 0 0 0 1 0 0 0
POINTS 832
DATA ascii
0.0061015999 0.69599998 0.0073219193 4.6918934e-39 325 234
0.00733244 0.69700003 0.00733244 4.1412405e-39 326 234
0.0085667865 0.69800001 0.0073429602 4.1412405e-39 327 234
0.0098186666 0.69999999 0.0073639993 4.0501267e-39 328 234
0.011045999 0.69999999 0.0073639993 4.0501267e-39 329 234
0.012290866 0.70099998 0.0073745195 4.050847e-39 330 234
0.013558527 0.70300001 0.0073955595 4.1430426e-39 331 234
0.014791119 0.70300001 0.0073955595 4.4185533e-39 332 234
0.016046507 0.704 0.0074060797 4.6029446e-39 333 234
0.017280852 0.704 0.0074060797 4.7873372e-39 334 234
0.018515198 0.704 0.0074060797 5.1561183e-39 335 234
0.019833706 0.70700002 0.0074376399 5.0657206e-39 336 234
0.021103119 0.708 0.0074481601 4.9735249e-39 337 234
0.022533838 0.71399999 0.0075112795 4.9728033e-39 338 234
0.023852346 0.71600002 0.00753232 4.050847e-39 339 234
0.025107734 0.71600002 0.00753232 2.4853416e-39 340 234
0.026363119 0.71600002 0.00753232 7.7404925e-39 341 234
-0.0479712 0.72000003 0.0063120001 1.6229678e-38 282 235
-0.0467088 0.72000003 0.0063120001 1.512297e-38 283 235
-0.045383278 0.71899998 0.0063032326 1.4197407e-38 284 235
-0.043999899 0.71700001 0.0062857 9.0344529e-39 285 235
-0.042683143 0.71600002 0.0062769335 9.5663998e-39 286 235
-0.041138459 0.71100003 0.0062330998 8.6440833e-39 287 235
-0.039835732 0.70999998 0.0062243328 6.2613939e-39 288 235
-0.038482159 0.708 0.0062067998 6.9989589e-39 289 235
-0.037135597 0.70599997 0.0061892662 7.6468479e-39 290 235
-0.035897743 0.70599997 0.0061892662 8.1074673e-39 291 235
-0.034561705 0.704 0.0061717331 7.4563203e-39 292 235
-0.033280019 0.70300001 0.0061629666 6.5343654e-39 293 235
-0.031956252 0.70099998 0.0061454331 5.6127581e-39 294 235
-0.030595668 0.69800001 0.006119133 5.3365313e-39 295 235
-0.029371841 0.69800001 0.006119133 5.5194904e-39 296 235
-0.028107686 0.69700003 0.0061103669 5.4272948e-39 297 235
-0.026885614 0.69700003 0.0061103669 5.4265787e-39 298 235
-0.025663542 0.69700003 0.0061103669 5.2418274e-39 299 235
-0.0244064 0.69599998 0.0061015999 5.1489157e-39 300 235
-0.023186078 0.69599998 0.0061015999 4.9645244e-39 301 235
-0.02199732 0.69700003 0.0061103669 4.7808562e-39 302 235
-0.020775247 0.69700003 0.0061103669 4.9648873e-39 303 235
-0.019525118 0.69599998 0.0061015999 4.6893766e-39 304 235
-0.018304799 0.69599998 0.0061015999 4.597181e-39 305 235
-0.017084479 0.69599998 0.0061015999 4.7797758e-39 306 235
-0.015864158 0.69599998 0.0061015999 4.7797758e-39 307 235
-0.014643839 0.69599998 0.0061015999 4.8712554e-39 308 235
-0.013384946 0.69400001 0.0060840664 4.8712554e-39 309 235
-0.012168133 0.69400001 0.0060840664 4.7812093e-39 310 235
-0.01095132 0.69400001 0.0060840664 5.0574361e-39 311 235
-0.0097345067 0.69400001 0.0060840664 5.1489129e-39 312 235
-0.0085176928 0.69400001 0.0060840664 5.1489129e-39 313 235
-0.0073008798 0.69400001 0.0060840664 5.2425504e-39 314 235
-0.0060840664 0.69400001 0.0060840664 5.4269417e-39 315 235
-0.0048672534 0.69400001 0.0060840664 5.7020838e-39 316 235
-0.0036504399 0.69400001 0.0060840664 5.7020838e-39 317 235
-0.0024336267 0.69400001 0.0060840664 5.6098882e-39 318 235
-0.0012168133 0.69400001 0.0060840664 5.5176926e-39 319 235
0 0.69599998 0.0061015999 4.9670411e-39 320 235
0.0012203199 0.69599998 0.0061015999 4.8744868e-39 321 235
0.0024406398 0.69599998 0.0061015999 4.4163883e-39 322 235
0.00366622 0.69700003 0.0061103669 4.5085839e-39 323 235
0.0048812795 0.69599998 0.0061015999 4.5085839e-39 324 235
0.0061015999 0.69599998 0.0061015999 4.5085839e-39 325 235
0.00733244 0.69700003 0.0061103669 4.4160324e-39 326 235
0.0085667865 0.69800001 0.006119133 4.4160324e-39 327 235
0.0097906133 0.69800001 0.006119133 4.0501267e-39 328 235
0.011045999 0.69999999 0.0061366665 4.0501267e-39 329 235
0.012290866 0.70099998 0.0061454331 3.8675347e-39 330 235
0.013519952 0.70099998 0.0061454331 3.774979e-39 331 235
0.014791119 0.70300001 0.0061629666 3.8671788e-39 332 235
0.016023712 0.70300001 0.0061629666 4.1434055e-39 333 235
0.017280852 0.704 0.0061717331 4.3277996e-39 334 235
0.018515198 0.704 0.0061717331 4.512551e-39 335 235
0.019805651 0.70599997 0.0061892662 4.6054655e-39 336 235
0.021073313 0.70700002 0.0061980332 4.5132699e-39 337 235
0.022407599 0.70999998 0.0062243328 4.5125482e-39 338 235
0.02378572 0.71399999 0.0062593995 3.9593744e-39 339 235
0.025107734 0.71600002 0.0062769335 3.1289103e-39 340 235
0.026363119 0.71600002 0.0062769335 5.8947792e-39 341 235
-0.04937036 0.722 0.0050636264 1.6228594e-38 281 236
-0.0479712 0.72000003 0.0050496003 1.6228597e-38 282 236
-0.046643924 0.71899998 0.0050425865 1.4845663e-38 283 236
-0.045257039 0.71700001 0.0050285598 1.3737149e-38 284 236
-0.043938532 0.71600002 0.0050215465 9.5883455e-39 285 236
-0.042504307 0.713 0.0050005065 9.8451447e-39 286 236
-0.041138459 0.71100003 0.0049864799 7.6328097e-39 287 236
-0.039723519 0.708 0.0049654399 5.6163874e-39 288 236
-0.038427804 0.70700002 0.0049584266 6.7230951e-39 289 236
-0.037135597 0.70599997 0.0049514128 7.6464976e-39 290 236
-0.035796054 0.704 0.0049373866 8.107117e-39 291 236
-0.034512613 0.70300001 0.0049303733 6.4447034e-39 292 236
-0.03318534 0.70099998 0.0049163462 5.6153014e-39 293 236
-0.031910665 0.69999999 0.0049093333 5.4290927e-39 294 236
-0.030595668 0.69800001 0.0048953067 5.1525058e-39 295 236
-0.02932976 0.69700003 0.0048882933 5.4272976e-39 296 236
-0.028107686 0.69700003 0.0048882933 5.5194932e-39 297 236
-0.026885614 0.69700003 0.0048882933 5.4272976e-39 298 236
-0.025626717 0.69599998 0.0048812795 5.4272976e-39 299 236
-0.0244064 0.69599998 0.0048812795 5.3343831e-39 300 236
-0.023186078 0.69599998 0.0048812795 5.1496317e-39 301 236
-0.021965759 0.69599998 0.0048812795 5.0585151e-39 302 236
-0.020745439 0.69599998 0.0048812795 5.0585151e-39 303 236
-0.019525118 0.69599998 0.0048812795 4.8741238e-39 304 236
-0.018304799 0.69599998 0.0048812795 4.6897326e-39 305 236
-0.017035386 0.69400001 0.0048672534 4.87197e-39 306 236
-0.015818574 0.69400001 0.0048672534 4.87197e-39 307 236
-0.01460176 0.69400001 0.0048672534 4.87197e-39 308 236
-0.013384946 0.69400001 0.0048672534 4.87197e-39 309 236
-0.012168133 0.69400001 0.0048672534 4.9645244e-39 310 236
-0.01095132 0.69400001 0.0048672534 4.9645244e-39 311 236
-0.0097345067 0.69400001 0.0048672534 4.9645216e-39 312 236
-0.0085176928 0.69400001 0.0048672534 4.9645216e-39 313 236
-0.0073008798 0.69400001 0.0048672534 5.2400295e-39 314 236
-0.0060840664 0.69400001 0.0048672534 5.4247795e-39 315 236
-0.0048672534 0.69400001 0.0048672534 5.4247795e-39 316 236
-0.0036504399 0.69400001 0.0048672534 5.4247795e-39 317 236
-0.0024336267 0.69400001 0.0048672534 5.2411113e-39 318 236
-0.0012168133 0.69400001 0.0048672534 5.1489157e-39 319 236
0 0.69400001 0.0048672534 4.7815751e-39 320 236
0.0012203199 0.69599998 0.0048812795 4.7815751e-39 321 236
0.0024406398 0.69599998 0.0048812795 4.3231151e-39 322 236
0.0036609597 0.69599998 0.0048812795 4.5078651e-39 323 236
0.0048812795 0.69599998 0.0048812795 4.4163883e-39 324 236
0.0061015999 0.69599998 0.0048812795 4.4163883e-39 325 236
0.00733244 0.69700003 0.0048882933 4.1405217e-39 326 236
0.0085667865 0.69800001 0.0048953067 4.1405217e-39 327 236
0.0097906133 0.69800001 0.0048953067 3.9579311e-39 328 236
0.01101444 0.69800001 0.0048953067 3.9579311e-39 329 236
0.012273333 0.69999999 0.0049093333 3.9586499e-39 330 236
0.013519952 0.70099998 0.0049163462 3.9586499e-39 331 236
0.014791119 0.70300001 0.0049303733 3.958294e-39 332 236
0.016023712 0.70300001 0.0049303733 4.050491e-39 333 236
0.017280852 0.704 0.0049373866 4.1434083e-39 334 236
0.018515198 0.704 0.0049373866 4.3277996e-39 335 236
0.019805651 0.70599997 0.0049514128 4.2370389e-39 336 236
0.021073313 0.70700002 0.0049584266 4.2370389e-39 337 236
0.022407599 0.70999998 0.0049794666 4.4196351e-39 338 236
0.02378572 0.71399999 0.0050075199 4.3270807e-39 339 236
0.025107734 0.71600002 0.0050215465 3.314026e-39 340 236
0.026363119 0.71600002 0.0050215465 4.0515911e-39 341 236
-0.0492336 0.72000003 0.0037872 1.613568e-38 281 237
-0.04790457 0.71899998 0.0037819401 1.5859816e-38 282 237
-0.046514176 0.71700001 0.0037714199 1.4384686e-38 283 237
-0.045193922 0.71600002 0.00376616 1.3093579e-38 284 237
-0.043938532 0.71600002 0.00376616 1.0235513e-38 285 237
-0.042504307 0.713 0.0037503797 1.058631e-38 286 237
-0.041138459 0.71100003 0.0037398601 7.0828757e-39 287 237
-0.039723519 0.708 0.00372408 5.5234715e-39 288 237
-0.038427804 0.70700002 0.0037188199 6.8142104e-39 289 237
-0.037135597 0.70599997 0.0037135598 7.1844404e-39 290 237
-0.035796054 0.704 0.0037030398 7.2766374e-39 291 237
-0.034512613 0.70300001 0.0036977797 5.6160217e-39 292 237
-0.033137999 0.69999999 0.0036819996 5.2475979e-39 293 237
-0.031910665 0.69999999 0.0036819996 5.3368999e-39 294 237
-0.030595668 0.69800001 0.0036714801 5.1521499e-39 295 237
-0.02932976 0.69700003 0.00366622 5.2439854e-39 296 237
-0.028107686 0.69700003 0.00366622 5.5202121e-39 297 237
-0.026885614 0.69700003 0.00366622 5.4287396e-39 298 237
-0.025626717 0.69599998 0.0036609597 5.4287396e-39 299 237
-0.024336265 0.69400001 0.0036504399 5.3372628e-39 300 237
-0.023119451 0.69400001 0.0036504399 5.4294598e-39 301 237
-0.021965759 0.69599998 0.0036609597 5.3376187e-39 302 237
-0.020745439 0.69599998 0.0036609597 5.0610332e-39 303 237
-0.019525118 0.69599998 0.0036609597 5.058871e-39 304 237
-0.0182522 0.69400001 0.0036504399 4.874121e-39 305 237
-0.017035386 0.69400001 0.0036504399 4.9652405e-39 306 237
-0.015818574 0.69400001 0.0036504399 4.9652405e-39 307 237
-0.01460176 0.69400001 0.0036504399 4.7808534e-39 308 237
-0.013384946 0.69400001 0.0036504399 4.6886578e-39 309 237
-0.012168133 0.69400001 0.0036504399 4.87197e-39 310 237
-0.01095132 0.69400001 0.0036504399 4.87197e-39 311 237
-0.0097345067 0.69400001 0.0036504399 4.9645216e-39 312 237
-0.0085176928 0.69400001 0.0036504399 4.9645216e-39 313 237
-0.0073008798 0.69400001 0.0036504399 4.7808534e-39 314 237
-0.0060840664 0.69400001 0.0036504399 4.7808534e-39 315 237
-0.0048672534 0.69400001 0.0036504399 4.9641685e-39 316 237
-0.0036504399 0.69400001 0.0036504399 4.9641685e-39 317 237
-0.0024336267 0.69400001 0.0036504399 4.780859e-39 318 237
-0.0012168133 0.69400001 0.0036504399 4.780859e-39 319 237
0 0.69400001 0.0036504399 4.6890235e-39 320 237
0.0012203199 0.69599998 0.0036609597 4.7815779e-39 321 237
0.0024406398 0.69599998 0.0036609597 4.2309222e-39 322 237
0.0036609597 0.69599998 0.0036609597 4.5075091e-39 323 237
0.0048812795 0.69599998 0.0036609597 3.9572122e-39 324 237
0.0061015999 0.69599998 0.0036609597 4.1412433e-39 325 237
0.00733244 0.69700003 0.00366622 3.9579283e-39 326 237
0.0085667865 0.69800001 0.0036714801 3.8657326e-39 327 237
0.0097906133 0.69800001 0.0036714801 3.8657326e-39 328 237
0.01101444 0.69800001 0.0036714801 3.9579283e-39 329 237
0.012273333 0.69999999 0.0036819996 3.7742601e-39 330 237
0.013519952 0.70099998 0.0036872597 3.7742601e-39 331 237
0.014791119 0.70300001 0.0036977797 3.9575751e-39 332 237
0.016023712 0.70300001 0.0036977797 3.9575751e-39 333 237
0.017280852 0.704 0.0037030398 3.7757048e-39 334 237
0.018515198 0.704 0.0037030398 3.9600961e-39 335 237
0.019805651 0.70599997 0.0037135598 4.0522917e-39 336 237
0.021043506 0.70599997 0.0037135598 3.9600961e-39 337 237
0.022407599 0.70999998 0.0037345996 4.2348851e-39 338 237
0.023752406 0.713 0.0037503797 4.4196351e-39 339 237
0.025107734 0.71600002 0.00376616 3.6838819e-39 340 237
0.026363119 0.71600002 0.00376616 3.2229038e-39 341 237
0.027657079 0.71700001 0.0037714199 8.8536713e-39 342 237
0.028914221 0.71700001 0.0037714199 1.4569799e-38 343 237
-0.0492336 0.72000003 0.0025248001 1.5767623e-38 281 238
-0.04790457 0.71899998 0.0025212932 1.5674709e-38 282 238
-0.046514176 0.71700001 0.0025142799 1.4199219e-38 283 238
-0.045193922 0.71600002 0.0025107733 1.3184697e-38 284 238
-0.043815799 0.71399999 0.0025037599 1.1525177e-38 285 238
-0.042504307 0.713 0.0025002533 1.1144518e-38 286 238
-0.041080594 0.70999998 0.0024897333 5.5205863e-39 287 238
-0.039723519 0.708 0.00248272 5.0625004e-39 288 238
-0.038427804 0.70700002 0.0024792133 6.0762922e-39 289 238
-0.037135597 0.70599997 0.0024757064 5.8022304e-39 290 238
-0.035796054 0.704 0.0024686933 5.7100334e-39 291 238
-0.034414422 0.70099998 0.0024581731 5.247242e-39 292 238
-0.033137999 0.69999999 0.0024546667 4.9706551e-39 293 238
-0.031910665 0.69999999 0.0024546667 5.3358251e-39 294 238
-0.030595668 0.69800001 0.0024476533 5.3358251e-39 295 238
-0.02932976 0.69700003 0.0024441467 5.2443483e-39 296 238
-0.028107686 0.69700003 0.0024441467 5.4287396e-39 297 238
-0.026885614 0.69700003 0.0024441467 5.2465189e-39 298 238
-0.025626717 0.69599998 0.0024406398 5.799334e-39 299 238
-0.024336265 0.69400001 0.0024336267 6.3510686e-39 300 238
-0.023119451 0.69400001 0.0024336267 6.0744817e-39 301 238
-0.021965759 0.69599998 0.0024406398 5.9815504e-39 302 238
-0.020745439 0.69599998 0.0024406398 5.6124077e-39 303 238
-0.019525118 0.69599998 0.0024406398 5.4265759e-39 304 238
-0.0182522 0.69400001 0.0024336267 5.2421833e-39 305 238
-0.017035386 0.69400001 0.0024336267 5.0574333e-39 306 238
-0.015818574 0.69400001 0.0024336267 4.9652377e-39 307 238
-0.01460176 0.69400001 0.0024336267 4.9645216e-39 308 238
-0.013384946 0.69400001 0.0024336267 4.872326e-39 309 238
-0.012168133 0.69400001 0.0024336267 4.87197e-39 310 238
-0.01095132 0.69400001 0.0024336267 4.87197e-39 311 238
-0.0097345067 0.69400001 0.0024336267 4.87197e-39 312 238
-0.0085176928 0.69400001 0.0024336267 4.9645244e-39 313 238
-0.0073008798 0.69400001 0.0024336267 4.87197e-39 314 238
-0.0060840664 0.69400001 0.0024336267 4.87197e-39 315 238
-0.0048672534 0.69400001 0.0024336267 4.6886606e-39 316 238
-0.0036504399 0.69400001 0.0024336267 4.6886606e-39 317 238
-0.0024336267 0.69400001 0.0024336267 4.5968279e-39 318 238
-0.0012168133 0.69400001 0.0024336267 4.5968279e-39 319 238
0 0.69400001 0.0024336267 4.4135156e-39 320 238
0.0012168133 0.69400001 0.0024336267 4.5057113e-39 321 238
0.0024336267 0.69400001 0.0024336267 4.3231179e-39 322 238
0.0036609597 0.69599998 0.0024406398 4.4153135e-39 323 238
0.0048812795 0.69599998 0.0024406398 3.9572094e-39 324 238
0.0061015999 0.69599998 0.0024406398 3.9572094e-39 325 238
0.00733244 0.69700003 0.0024441467 3.8657298e-39 326 238
0.0085667865 0.69800001 0.0024476533 3.9579255e-39 327 238
0.0097906133 0.69800001 0.0024476533 3.774616e-39 328 238
0.01101444 0.69800001 0.0024476533 3.774616e-39 329 238
0.012273333 0.69999999 0.0024546667 3.8646579e-39 330 238
0.013500666 0.69999999 0.0024546667 3.9572122e-39 331 238
0.014749039 0.70099998 0.0024581731 3.8653795e-39 332 238
0.015978126 0.70099998 0.0024581731 3.8653795e-39 333 238
0.017256306 0.70300001 0.0024651866 3.6824302e-39 334 238
0.018515198 0.704 0.0024686933 3.8671816e-39 335 238
0.019749546 0.704 0.0024686933 3.8671816e-39 336 238
0.021043506 0.70599997 0.0024757064 3.9593772e-39 337 238
0.022407599 0.70999998 0.0024897333 4.1434083e-39 338 238
0.023752406 0.713 0.0025002533 4.3277996e-39 339 238
0.025107734 0.71600002 0.0025107733 3.5945562e-39 340 238
0.026363119 0.71600002 0.0025107733 2.2116217e-39 341 238
0.027657079 0.71700001 0.0025142799 8.1139385e-39 342 238
0.028914221 0.71700001 0.0025142799 1.438324e-38 343 238
-0.050496001 0.72000003 0.0012624001 1.5673623e-38 280 239
-0.0492336 0.72000003 0.0012624001 1.53052e-38 281 239
-0.04790457 0.71899998 0.0012606466 1.4935339e-38 282 239
-0.046514176 0.71700001 0.00125714 1.3921546e-38 283 239
-0.045193922 0.71600002 0.0012553866 1.3551686e-38 284 239
-0.043754432 0.713 0.0012501266 1.3459489e-38 285 239
-0.042385083 0.71100003 0.00124662 1.1700939e-38 286 239
-0.041080594 0.70999998 0.0012448666 3.7721147e-39 287 239
-0.039667413 0.70700002 0.0012396066 4.5082476e-39 288 239
-0.038373452 0.70599997 0.0012378532 5.5227583e-39 289 239
-0.037135597 0.70599997 0.0012378532 5.6131532e-39 290 239
-0.035796054 0.704 0.0012343467 5.428762e-39 291 239
-0.034414422 0.70099998 0.0012290865 5.3354775e-39 292 239
-0.033137999 0.69999999 0.0012273333 5.5195087e-39 293 239
-0.031819493 0.69800001 0.0012238267 5.3358279e-39 294 239
-0.030595668 0.69800001 0.0012238267 5.519859e-39 295 239
-0.02932976 0.69700003 0.0012220733 4.9684901e-39 296 239
-0.028107686 0.69700003 0.0012220733 5.9822819e-39 297 239
-0.026847038 0.69599998 0.0012203199 6.6312652e-39 298 239
-0.025626717 0.69599998 0.0012203199 9.2127429e-39 299 239
-0.024336265 0.69400001 0.0012168133 9.6686819e-39 300 239
-0.023119451 0.69400001 0.0012168133 7.916965e-39 301 239
-0.021965759 0.69599998 0.0012203199 6.4425384e-39 302 239
-0.020745439 0.69599998 0.0012203199 5.7049733e-39 303 239
-0.019525118 0.69599998 0.0012203199 5.3358251e-39 304 239
-0.0182522 0.69400001 0.0012168133 4.9670411e-39 305 239
-0.017035386 0.69400001 0.0012168133 5.0574389e-39 306 239
-0.015818574 0.69400001 0.0012168133 4.9652433e-39 307 239
-0.01460176 0.69400001 0.0012168133 4.7808534e-39 308 239
-0.013384946 0.69400001 0.0012168133 4.5964607e-39 309 239
-0.012168133 0.69400001 0.0012168133 4.8719728e-39 310 239
-0.01095132 0.69400001 0.0012168133 4.8719728e-39 311 239
-0.0097345067 0.69400001 0.0012168133 4.6890137e-39 312 239
-0.0085176928 0.69400001 0.0012168133 4.7812093e-39 313 239
-0.0073008798 0.69400001 0.0012168133 4.9645216e-39 314 239
-0.0060840664 0.69400001 0.0012168133 4.9645216e-39 315 239
-0.0048672534 0.69400001 0.0012168133 4.5060672e-39 316 239
-0.0036504399 0.69400001 0.0012168133 4.4135128e-39 317 239
-0.0024336267 0.69400001 0.0012168133 4.4135128e-39 318 239
-0.0012168133 0.69400001 0.0012168133 4.4135128e-39 319 239
0 0.69400001 0.0012168133 4.2305565e-39 320 239
0.0012168133 0.69400001 0.0012168133 4.4145876e-39 321 239
0.0024336267 0.69400001 0.0012168133 4.2309194e-39 322 239
0.0036609597 0.69599998 0.0012203199 4.2309194e-39 323 239
0.0048812795 0.69599998 0.0012203199 4.048326e-39 324 239
0.0061015999 0.69599998 0.0012203199 4.1405217e-39 325 239
0.0073219193 0.69599998 0.0012203199 3.6831393e-39 326 239
0.0085545136 0.69700003 0.0012220733 3.6831393e-39 327 239
0.0097906133 0.69800001 0.0012238267 3.8657326e-39 328 239
0.01101444 0.69800001 0.0012238267 3.8657326e-39 329 239
0.012238266 0.69800001 0.0012238267 3.8657326e-39 330 239
0.013500666 0.69999999 0.0012273333 3.773537e-39 331 239
0.014749039 0.70099998 0.0012290865 3.5898716e-39 332 239
0.015978126 0.70099998 0.0012290865 3.6820673e-39 333 239
0.017256306 0.70300001 0.0012325933 3.6820673e-39 334 239
0.018515198 0.704 0.0012343467 3.7742629e-39 335 239
0.019749546 0.704 0.0012343467 3.9575751e-39 336 239
0.021043506 0.70599997 0.0012378532 4.0497708e-39 337 239
0.022312919 0.70700002 0.0012396066 4.1437615e-39 338 239
0.023685781 0.71100003 0.00124662 4.4203484e-39 339 239
0.025002534 0.713 0.0012501266 3.6849483e-39 340 239
0.026289478 0.71399999 0.00125188 1.4726133e-39 341 239
0.027618507 0.71600002 0.0012553866 8.2043349e-39 342 239
0.028873893 0.71600002 0.0012553866 1.4934617e-38 343 239
-0.050496001 0.72000003 -0 1.548851e-38 280 240
-0.0492336 0.72000003 -0 1.5120086e-38 281 240
-0.04790457 0.71899998 -0 1.4106654e-38 282 240
-0.046449307 0.71600002 -0 1.3276894e-38 283 240
-0.045067675 0.71399999 -0 1.2540773e-38 284 240
-0.043754432 0.713 -0 1.2264185e-38 285 240
-0.042385083 0.71100003 -0 1.0054015e-38 286 240
-0.041080594 0.70999998 -0 1.0188435e-39 287 240
-0.039667413 0.70700002 -0 4.1394651e-39 288 240
-0.038373452 0.70599997 -0 4.9695845e-39 289 240
-0.037135597 0.70599997 -0 4.9674307e-39 290 240
-0.035796054 0.704 -0 4.7830394e-39 291 240
-0.034414422 0.70099998 -0 4.7823164e-39 292 240
-0.033137999 0.69999999 -0 4.8745134e-39 293 240
-0.031819493 0.69800001 -0 5.1528841e-39 294 240
-0.030595668 0.69800001 -0 5.4291123e-39 295 240
-0.02932976 0.69700003 -0 5.9811973e-39 296 240
-0.028107686 0.69700003 -0 8.3779249e-39 297 240
-0.026847038 0.69599998 -0 8.7539185e-39 298 240
-0.025626717 0.69599998 -0 1.1058809e-38 299 240
-0.024336265 0.69400001 -0 1.2071532e-38 300 240
-0.023119451 0.69400001 -0 8.291511e-39 301 240
-0.021965759 0.69599998 -0 6.6298065e-39 302 240
-0.020745439 0.69599998 -0 5.6156546e-39 303 240
-0.019525118 0.69599998 -0 5.8875499e-39 304 240
-0.0182522 0.69400001 -0 5.4265731e-39 305 240
-0.017035386 0.69400001 -0 4.874121e-39 306 240
-0.015818574 0.69400001 -0 4.7819254e-39 307 240
-0.01460176 0.69400001 -0 4.6886578e-39 308 240
-0.013384946 0.69400001 -0 4.5964607e-39 309 240
-0.012168133 0.69400001 -0 4.6886578e-39 310 240
-0.01095132 0.69400001 -0 4.6886578e-39 311 240
-0.0097345067 0.69400001 -0 4.872326e-39 312 240
-0.0085176928 0.69400001 -0 4.9645216e-39 313 240
-0.0073008798 0.69400001 -0 4.7812093e-39 314 240
-0.0060840664 0.69400001 -0 4.9652405e-39 315 240
-0.00486024 0.69300002 -0 4.59826e-39 316 240
-0.0036451798 0.69300002 -0 4.5060644e-39 317 240
-0.00243012 0.69300002 -0 4.2302006e-39 318 240
-0.00121506 0.69300002 -0 4.2302006e-39 319 240
0 0.69300002 -0 4.2302006e-39 320 240
0.0012168133 0.69400001 -0 4.2302006e-39 321 240
0.0024336267 0.69400001 -0 4.2309222e-39 322 240
0.0036504399 0.69400001 -0 4.3231179e-39 323 240
0.0048812795 0.69599998 -0 3.8646579e-39 324 240
0.0061015999 0.69599998 -0 3.9572122e-39 325 240
0.0073219193 0.69599998 -0 3.6824204e-39 326 240
0.0085545136 0.69700003 -0 3.774616e-39 327 240
0.0097765867 0.69700003 -0 3.8657326e-39 328 240
0.01101444 0.69800001 -0 3.8657326e-39 329 240
0.012238266 0.69800001 -0 3.7731811e-39 330 240
0.013500666 0.69999999 -0 3.7731811e-39 331 240
0.014727999 0.69999999 -0 3.4980361e-39 332 240
0.015978126 0.70099998 -0 3.4980361e-39 333 240
0.017207211 0.70099998 -0 3.4980389e-39 334 240
0.018515198 0.704 -0 3.4980389e-39 335 240
0.019749546 0.704 -0 3.3143707e-39 336 240
0.021043506 0.70599997 -0 3.4991207e-39 337 240
0.022312919 0.70700002 -0 3.5920366e-39 338 240
0.023652466 0.70999998 -0 4.0530134e-39 339 240
0.024932399 0.71100003 -0 3.4090873e-39 340 240
0.026179021 0.71100003 -0 3.6734899e-40 341 240
0.02754136 0.71399999 -0 8.5702433e-39 342 240
0.028873893 0.71600002 -0 1.6406872e-38 343 240
-0.050636265 0.722 -0.0012659066 1.5211203e-38 280 241
-0.0492336 0.72000003 -0.0012624001 1.5027172e-38 281 241
-0.04777132 0.71700001 -0.00125714 1.3922259e-38 282 241
-0.046319555 0.71399999 -0.00125188 1.2263098e-38 283 241
-0.045067675 0.71399999 -0.00125188 1.0974171e-38 284 241
-0.043631699 0.71100003 -0.00124662 9.9600175e-39 285 241
-0.042325463 0.70999998 -0.0012448666 8.3012192e-39 286 241
-0.040964879 0.708 -0.00124136 6.4898196e-40 287 241
-0.039667413 0.70700002 -0.0012396066 4.1380204e-39 288 241
-0.038427804 0.70700002 -0.0012396066 4.8755854e-39 289 241
-0.037135597 0.70599997 -0.0012378532 4.8741364e-39 290 241
-0.035796054 0.704 -0.0012343467 4.6901053e-39 291 241
-0.034414422 0.70099998 -0.0012290865 4.7812248e-39 292 241
-0.033137999 0.69999999 -0.0012273333 5.2418442e-39 293 241
-0.031819493 0.69800001 -0.0012238267 5.3365593e-39 294 241
-0.030595668 0.69800001 -0.0012238267 6.8120495e-39 295 241
-0.02932976 0.69700003 -0.0012220733 7.9223572e-39 296 241
-0.028107686 0.69700003 -0.0012220733 9.858464e-39 297 241
-0.026847038 0.69599998 -0.0012203199 1.1335396e-38 298 241
-0.025626717 0.69599998 -0.0012203199 1.1704179e-38 299 241
-0.024336265 0.69400001 -0.0012168133 1.1338636e-38 300 241
-0.023119451 0.69400001 -0.0012168133 8.2961816e-39 301 241
-0.021965759 0.69599998 -0.0012203199 6.7223707e-39 302 241
-0.020685827 0.69400001 -0.0012168133 5.0628507e-39 303 241
-0.019469013 0.69400001 -0.0012168133 5.6113357e-39 304 241
-0.0182522 0.69400001 -0.0012168133 5.058162e-39 305 241
-0.017035386 0.69400001 -0.0012168133 4.7815723e-39 306 241
-0.015818574 0.69400001 -0.0012168133 4.6893766e-39 307 241
-0.01460176 0.69400001 -0.0012168133 4.6886606e-39 308 241
-0.013384946 0.69400001 -0.0012168133 4.5964636e-39 309 241
-0.012168133 0.69400001 -0.0012168133 4.5964607e-39 310 241
-0.01095132 0.69400001 -0.0012168133 4.6886578e-39 311 241
-0.0097345067 0.69400001 -0.0012168133 4.6890137e-39 312 241
-0.0085176928 0.69400001 -0.0012168133 4.7812093e-39 313 241
-0.0073008798 0.69400001 -0.0012168133 4.5060616e-39 314 241
-0.0060840664 0.69400001 -0.0012168133 4.5060616e-39 315 241
-0.00486024 0.69300002 -0.00121506 4.5060616e-39 316 241
-0.0036451798 0.69300002 -0.00121506 4.413866e-39 317 241
-0.00243012 0.69300002 -0.00121506 4.2302006e-39 318 241
-0.00121506 0.69300002 -0.00121506 4.1380035e-39 319 241
0 0.69300002 -0.00121506 4.1380035e-39 320 241
0.0012168133 0.69400001 -0.0012168133 4.2302006e-39 321 241
0.0024336267 0.69400001 -0.0012168133 4.2302006e-39 322 241
0.0036504399 0.69400001 -0.0012168133 4.4142317e-39 323 241
0.0048672534 0.69400001 -0.0012168133 4.048326e-39 324 241
0.0061015999 0.69599998 -0.0012203199 4.1405217e-39 325 241
0.0073219193 0.69599998 -0.0012203199 3.774616e-39 326 241
0.0085545136 0.69700003 -0.0012220733 3.774616e-39 327 241
0.0097765867 0.69700003 -0.0012220733 3.9572094e-39 328 241
0.01101444 0.69800001 -0.0012238267 3.9572094e-39 329 241
0.012238266 0.69800001 -0.0012238267 3.773537e-39 330 241
0.013500666 0.69999999 -0.0012273333 3.6809827e-39 331 241
0.014727999 0.69999999 -0.0012273333 3.4973173e-39 332 241
0.015955333 0.69999999 -0.0012273333 3.4973173e-39 333 241
0.017207211 0.70099998 -0.0012290865 3.4973173e-39 334 241
0.018488899 0.70300001 -0.0012325933 3.4051216e-39 335 241
0.019749546 0.704 -0.0012343467 3.3143609e-39 336 241
0.021043506 0.70599997 -0.0012378532 3.5905877e-39 337 241
0.022281358 0.70599997 -0.0012378532 3.4090747e-39 338 241
0.023585839 0.708 -0.00124136 3.7774971e-39 339 241
0.024897331 0.70999998 -0.0012448666 2.7651458e-39 340 241
0.026142199 0.70999998 -0.0012448666 0 341 241
0.027502786 0.713 -0.0012501266 8.940458e-39 342 241
0.028873893 0.71600002 -0.0012553866 1.6869282e-38 343 241
-0.0492336 0.72000003 -0.0025248001 1.5488866e-38 281 242
-0.04777132 0.71700001 -0.0025142799 1.456691e-38 282 242
-0.046319555 0.71399999 -0.0025037599 1.2354214e-38 283 242
-0.045004558 0.713 -0.0025002533 1.1247517e-38 284 242
-0.043631699 0.71100003 -0.0024932399 9.7723864e-39 285 242
-0.042325463 0.70999998 -0.0024897333 7.4689376e-39 286 242
-0.040964879 0.708 -0.00248272 1.2921906e-39 287 242
-0.039667413 0.70700002 -0.0024792133 4.3227675e-39 288 242
-0.038427804 0.70700002 -0.0024792133 4.6911899e-39 289 242
-0.037135597 0.70599997 -0.0024757064 4.6901053e-39 290 242
-0.035796054 0.704 -0.0024686933 4.5057141e-39 291 242
-0.034414422 0.70099998 -0.0024581731 4.5060798e-39 292 242
-0.033137999 0.69999999 -0.0024546667 4.6904711e-39 293 242
-0.031819493 0.69800001 -0.0024476533 5.2450938e-39 294 242
-0.030595668 0.69800001 -0.0024476533 7.181202e-39 295 242
-0.02932976 0.69700003 -0.0024441467 8.7546416e-39 296 242
-0.028107686 0.69700003 -0.0024441467 1.0229772e-38 297 242
-0.026847038 0.69599998 -0.0024406398 1.1429031e-38 298 242
-0.025626717 0.69599998 -0.0024406398 1.059963e-38 299 242
-0.024336265 0.69400001 -0.0024336267 1.0137939e-38 300 242
-0.023119451 0.69400001 -0.0024336267 7.0036463e-39 301 242
-0.021965759 0.69599998 -0.0024406398 5.5270715e-39 302 242
-0.020685827 0.69400001 -0.0024336267 4.2363326e-39 303 242
-0.019469013 0.69400001 -0.0024336267 5.2432763e-39 304 242
-0.0182522 0.69400001 -0.0024336267 4.6904613e-39 305 242
-0.017035386 0.69400001 -0.0024336267 4.9645244e-39 306 242
-0.015818574 0.69400001 -0.0024336267 4.87197e-39 307 242
-0.01460176 0.69400001 -0.0024336267 4.5964607e-39 308 242
-0.013384946 0.69400001 -0.0024336267 4.5964607e-39 309 242
-0.012168133 0.69400001 -0.0024336267 4.5964607e-39 310 242
-0.01095132 0.69400001 -0.0024336267 4.6886578e-39 311 242
-0.0097345067 0.69400001 -0.0024336267 4.6886578e-39 312 242
-0.0085176928 0.69400001 -0.0024336267 4.6886578e-39 313 242
-0.0073008798 0.69400001 -0.0024336267 4.6893766e-39 314 242
-0.0060840664 0.69400001 -0.0024336267 4.597181e-39 315 242
-0.00486024 0.69300002 -0.00243012 4.2302006e-39 316 242
-0.0036451798 0.69300002 -0.00243012 4.1380035e-39 317 242
-0.00243012 0.69300002 -0.00243012 4.0458079e-39 318 242
-0.00121506 0.69300002 -0.00243012 4.0458079e-39 319 242
0 0.69300002 -0.00243012 4.1380035e-39 320 242
0.0012168133 0.69400001 -0.0024336267 4.1380035e-39 321 242
0.0024336267 0.69400001 -0.0024336267 4.2302034e-39 322 242
0.0036504399 0.69400001 -0.0024336267 4.4142345e-39 323 242
0.0048672534 0.69400001 -0.0024336267 3.7724622e-39 324 242
0.0061015999 0.69599998 -0.0024406398 3.8646579e-39 325 242
0.0073219193 0.69599998 -0.0024406398 3.6820645e-39 326 242
0.0085545136 0.69700003 -0.0024441467 3.6820645e-39 327 242
0.0097765867 0.69700003 -0.0024441467 3.8653767e-39 328 242
0.01101444 0.69800001 -0.0024476533 3.7731811e-39 329 242
0.012238266 0.69800001 -0.0024476533 3.4976732e-39 330 242
0.013500666 0.69999999 -0.0024546667 3.4054776e-39 331 242
0.014727999 0.69999999 -0.0024546667 3.4051216e-39 332 242
0.015955333 0.69999999 -0.0024546667 3.4973173e-39 333 242
0.017207211 0.70099998 -0.0024581731 3.4051216e-39 334 242
0.018488899 0.70300001 -0.0024651866 3.3129246e-39 335 242
0.019749546 0.704 -0.0024686933 2.9462973e-39 336 242
0.020983893 0.704 -0.0024686933 3.3150798e-39 337 242
0.022281358 0.70599997 -0.0024757064 3.225045e-39 338 242
0.023552528 0.70700002 -0.0024792133 3.501992e-39 339 242
0.024897331 0.70999998 -0.0024897333 2.3956472e-39 340 242
0.026142199 0.70999998 -0.0024897333 1.8367099e-40 341 242
0.027502786 0.713 -0.0025002533 9.5858274e-39 342 242
-0.047571439 0.71399999 -0.0037556398 1.5488866e-38 282 243
-0.046254687 0.713 -0.0037503797 1.2907388e-38 283 243
-0.045004558 0.713 -0.0037503797 1.1432628e-38 284 243
-0.043631699 0.71100003 -0.0037398601 8.9437048e-39 285 243
-0.042325463 0.70999998 -0.0037345996 6.2685966e-39 286 243
-0.040964879 0.708 -0.00372408 2.0279563e-39 287 243
-0.039667413 0.70700002 -0.0037188199 4.5075147e-39 288 243
-0.038373452 0.70599997 -0.0037135598 4.5075147e-39 289 243
-0.037030395 0.704 -0.0037030398 4.5057113e-39 290 243
-0.035796054 0.704 -0.0037030398 4.4135156e-39 291 243
-0.034365334 0.69999999 -0.0036819996 4.2298502e-39 292 243
-0.033137999 0.69999999 -0.0036819996 4.690827e-39 293 243
-0.031819493 0.69800001 -0.0036714801 4.9685055e-39 294 243
-0.030595668 0.69800001 -0.0036714801 7.089005e-39 295 243
-0.02932976 0.69700003 -0.00366622 8.8464841e-39 296 243
-0.028107686 0.69700003 -0.00366622 1.0321614e-38 297 243
-0.026847038 0.69599998 -0.0036609597 1.0783308e-38 298 243
-0.025626717 0.69599998 -0.0036609597 8.8472001e-39 299 243
-0.0244064 0.69599998 -0.0036609597 7.5553795e-39 300 243
-0.023186078 0.69599998 -0.0036609597 5.4348786e-39 301 243
-0.021965759 0.69599998 -0.0036609597 5.4316318e-39 302 243
-0.020685827 0.69400001 -0.0036504399 4.6018726e-39 303 243
-0.019469013 0.69400001 -0.0036504399 5.0581648e-39 304 243
-0.0182522 0.69400001 -0.0036504399 4.7815779e-39 305 243
-0.017035386 0.69400001 -0.0036504399 4.6886606e-39 306 243
-0.015818574 0.69400001 -0.0036504399 4.6886606e-39 307 243
-0.01460176 0.69400001 -0.0036504399 4.6886606e-39 308 243
-0.013384946 0.69400001 -0.0036504399 4.5964636e-39 309 243
-0.012168133 0.69400001 -0.0036504399 4.5957447e-39 310 243
-0.01095132 0.69400001 -0.0036504399 4.7797758e-39 311 243
-0.0097345067 0.69400001 -0.0036504399 4.6886578e-39 312 243
-0.0085176928 0.69400001 -0.0036504399 4.6886578e-39 313 243
-0.0073008798 0.69400001 -0.0036504399 4.5964607e-39 314 243
-0.0036451798 0.69300002 -0.0036451798 4.2284013e-39 317 243
-0.00243012 0.69300002 -0.0036451798 4.045089e-39 318 243
-0.00121506 0.69300002 -0.0036451798 4.045089e-39 319 243
0 0.69300002 -0.0036451798 4.0458079e-39 320 243
0.00121506 0.69300002 -0.0036451798 4.1380035e-39 321 243
0.0024336267 0.69400001 -0.0036504399 4.0465268e-39 322 243
0.0036504399 0.69400001 -0.0036504399 4.1387238e-39 323 243
0.0048672534 0.69400001 -0.0036504399 3.8635789e-39 324 243
0.0060840664 0.69400001 -0.0036504399 3.9557745e-39 325 243
0.0073219193 0.69599998 -0.0036609597 3.6809883e-39 326 243
0.0085545136 0.69700003 -0.00366622 3.6809883e-39 327 243
0.0097765867 0.69700003 -0.00366622 3.6809883e-39 328 243
0.01101444 0.69800001 -0.0036714801 3.6809883e-39 329 243
0.012238266 0.69800001 -0.0036714801 3.5877164e-39 330 243
0.013500666 0.69999999 -0.0036819996 3.4955208e-39 331 243
0.014727999 0.69999999 -0.0036819996 3.3122085e-39 332 243
0.015978126 0.70099998 -0.0036872597 3.4044042e-39 333 243
0.017207211 0.70099998 -0.0036872597 3.1288935e-39 334 243
0.018488899 0.70300001 -0.0036977797 3.1288935e-39 335 243
0.019749546 0.704 -0.0037030398 2.8541017e-39 336 243
0.020983893 0.704 -0.0037030398 3.2225254e-39 337 243
0.022281358 0.70599997 -0.0037135598 3.0410167e-39 338 243
0.023552528 0.70700002 -0.0037188199 3.4094404e-39 339 243
0.024827199 0.708 -0.00372408 2.3038174e-39 340 243
0.026068559 0.708 -0.00372408 1.1974712e-39 341 243
-0.048960082 0.71600002 -0.0050215465 1.6228597e-38 281 244
-0.047571439 0.71399999 -0.0050075199 1.5766174e-38 282 244
-0.046254687 0.713 -0.0050005065 1.3830066e-38 283 244
-0.044878319 0.71100003 -0.0049864799 1.2078003e-38 284 244
-0.043570329 0.70999998 -0.0049794666 7.3756672e-39 285 244
-0.042325463 0.70999998 -0.0049794666 4.6065599e-39 286 244
-0.040964879 0.708 -0.0049654399 3.0392342e-39 287 244
-0.039667413 0.70700002 -0.0049584266 4.6908242e-39 288 244
-0.038373452 0.70599997 -0.0049514128 4.5064329e-39 289 244
-0.037030395 0.704 -0.0049373866 4.4135156e-39 290 244
-0.035796054 0.704 -0.0049373866 4.3213186e-39 291 244
-0.034365334 0.69999999 -0.0049093333 4.1376532e-39 292 244
-0.033137999 0.69999999 -0.0049093333 4.5986314e-39 293 244
-0.031819493 0.69800001 -0.0048953067 4.9677866e-39 294 244
-0.030595668 0.69800001 -0.0048953067 6.4429167e-39 295 244
-0.02932976 0.69700003 -0.0048882933 7.2806003e-39 296 244
-0.028107686 0.69700003 -0.0048882933 9.3089042e-39 297 244
-0.026847038 0.69599998 -0.0048812795 9.9539106e-39 298 244
-0.025626717 0.69599998 -0.0048812795 7.372433e-39 299 244
-0.0244064 0.69599998 -0.0048812795 6.2628386e-39 300 244
-0.023186078 0.69599998 -0.0048812795 4.9720998e-39 301 244
-0.021965759 0.69599998 -0.0048812795 5.5205891e-39 302 244
-0.020745439 0.69599998 -0.0048812795 5.1514464e-39 303 244
-0.019525118 0.69599998 -0.0048812795 4.8737735e-39 304 244
-0.0182522 0.69400001 -0.0048672534 4.6890235e-39 305 244
-0.017035386 0.69400001 -0.0048672534 4.6886606e-39 306 244
-0.015818574 0.69400001 -0.0048672534 4.6886606e-39 307 244
-0.01460176 0.69400001 -0.0048672534 4.5964636e-39 308 244
-0.013384946 0.69400001 -0.0048672534 4.5039092e-39 309 244
-0.012168133 0.69400001 -0.0048672534 4.5957447e-39 310 244
-0.01095132 0.69400001 -0.0048672534 4.7797758e-39 311 244
-0.0097345067 0.69400001 -0.0048672534 4.87197e-39 312 244
-0.0085176928 0.69400001 -0.0048672534 4.779773e-39 313 244
-0.0073008798 0.69400001 -0.0048672534 4.779773e-39 314 244
-0.0036451798 0.69300002 -0.00486024 4.1362057e-39 317 244
-0.00243012 0.69300002 -0.00486024 4.1362085e-39 318 244
-0.00121506 0.69300002 -0.00486024 4.2284041e-39 319 244
0 0.69300002 -0.00486024 3.9536123e-39 320 244
0.00121506 0.69300002 -0.00486024 4.0458079e-39 321 244
0.00243012 0.69300002 -0.00486024 4.0458079e-39 322 244
0.0036504399 0.69400001 -0.0048672534 4.1380035e-39 323 244
0.0048672534 0.69400001 -0.0048672534 3.6795463e-39 324 244
0.0060840664 0.69400001 -0.0048672534 3.8635789e-39 325 244
0.0073219193 0.69599998 -0.0048812795 3.6802694e-39 326 244
0.0085545136 0.69700003 -0.0048882933 3.6802694e-39 327 244
0.0097765867 0.69700003 -0.0048882933 3.6802694e-39 328 244
0.01101444 0.69800001 -0.0048953067 3.6802694e-39 329 244
0.012238266 0.69800001 -0.0048953067 3.5869976e-39 330 244
0.013500666 0.69999999 -0.0049093333 3.4948019e-39 331 244
0.014727999 0.69999999 -0.0049093333 3.3114897e-39 332 244
0.015978126 0.70099998 -0.0049163462 3.219294e-39 333 244
0.017207211 0.70099998 -0.0049163462 3.1278145e-39 334 244
0.018488899 0.70300001 -0.0049303733 3.1278145e-39 335 244
0.019749546 0.704 -0.0049373866 2.761906e-39 336 244
0.020983893 0.704 -0.0049373866 2.9462973e-39 337 244
0.022281358 0.70599997 -0.0049514128 3.1321305e-39 338 244
0.023552528 0.70700002 -0.0049584266 3.4090775e-39 339 244
0.024827199 0.708 -0.0049654399 2.4867611e-39 340 244
0.026068559 0.708 -0.0049654399 3.1321305e-39 341 244
-0.048960082 0.71600002 -0.0062769335 1.6595216e-38 281 245
-0.047571439 0.71399999 -0.0062593995 1.613281e-38 282 245
-0.046124939 0.71100003 -0.0062330998 1.4381093e-38 283 245
-0.044878319 0.71100003 -0.0062330998 1.1344767e-38 284 245
-0.043570329 0.70999998 -0.0062243328 4.7988769e-39 285 245
-0.042325463 0.70999998 -0.0062243328 3.4058657e-39 286 245
-0.040964879 0.708 -0.0062067998 3.8668439e-39 287 245
-0.039667413 0.70700002 -0.0061980332 4.9663377e-39 288 245
-0.038427804 0.70700002 -0.0061980332 4.5053609e-39 289 245
-0.037030395 0.704 -0.0061717331 4.3209627e-39 290 245
-0.035745207 0.70300001 -0.0061629666 4.228767e-39 291 245
-0.034414422 0.70099998 -0.0061454331 4.2287726e-39 292 245
-0.033137999 0.69999999 -0.0061366665 4.5053609e-39 293 245
-0.031819493 0.69800001 -0.006119133 4.6908396e-39 294 245
-0.030595668 0.69800001 -0.006119133 5.7053517e-39 295 245
-0.02932976 0.69700003 -0.0061103669 5.9891454e-39 296 245
-0.028107686 0.69700003 -0.0061103669 7.8330566e-39 297 245
-0.026847038 0.69599998 -0.0061015999 9.3985817e-39 298 245
-0.025626717 0.69599998 -0.0061015999 6.6327128e-39 299 245
-0.0244064 0.69599998 -0.0061015999 5.6153182e-39 300 245
-0.023186078 0.69599998 -0.0061015999 4.9699488e-39 301 245
-0.021965759 0.69599998 -0.0061015999 5.2436476e-39 302 245
-0.020745439 0.69599998 -0.0061015999 4.7826695e-39 303 245
-0.019525118 0.69599998 -0.0061015999 4.9648901e-39 304 245
-0.0182522 0.69400001 -0.0060840664 4.6883047e-39 305 245
-0.017035386 0.69400001 -0.0060840664 4.6883047e-39 306 245
-0.015818574 0.69400001 -0.0060840664 4.5961076e-39 307 245
-0.01460176 0.69400001 -0.0060840664 4.5964636e-39 308 245
-0.013384946 0.69400001 -0.0060840664 4.5964636e-39 309 245
-0.012168133 0.69400001 -0.0060840664 4.5957447e-39 310 245
-0.01095132 0.69400001 -0.0060840664 4.5957447e-39 311 245
-0.0097345067 0.69400001 -0.0060840664 4.7797758e-39 312 245
-0.0085176928 0.69400001 -0.0060840664 4.7797758e-39 313 245
-0.0073008798 0.69400001 -0.0060840664 4.7790569e-39 314 245
-0.00486024 0.69300002 -0.0060753003 4.2284041e-39 316 245
-0.0036451798 0.69300002 -0.0060753003 4.1362085e-39 317 245
-0.00243012 0.69300002 -0.0060753003 4.0436541e-39 318 245
-0.00121506 0.69300002 -0.0060753003 4.1362085e-39 319 245
0 0.69300002 -0.0060753003 3.9536123e-39 320 245
0.00121506 0.69300002 -0.0060753003 3.9536123e-39 321 245
0.00243012 0.69300002 -0.0060753003 3.7699441e-39 322 245
0.0036504399 0.69400001 -0.0060840664 3.8621397e-39 323 245
0.0048672534 0.69400001 -0.0060840664 3.7703098e-39 324 245
0.0060840664 0.69400001 -0.0060840664 3.7703098e-39 325 245
0.0073219193 0.69599998 -0.0061015999 3.4044042e-39 326 245
0.0085545136 0.69700003 -0.0061103669 3.4044042e-39 327 245
0.0097765867 0.69700003 -0.0061103669 3.4955208e-39 328 245
0.01101444 0.69800001 -0.006119133 3.3114897e-39 329 245
0.012238266 0.69800001 -0.006119133 3.219294e-39 330 245
0.013500666 0.69999999 -0.0061366665 3.219294e-39 331 245
0.014727999 0.69999999 -0.0061366665 3.1267425e-39 332 245
0.015978126 0.70099998 -0.0061454331 3.0345469e-39 333 245
0.017207211 0.70099998 -0.0061454331 2.8512346e-39 334 245
0.018488899 0.70300001 -0.0061629666 2.8512346e-39 335 245
0.019749546 0.704 -0.0061717331 2.5771616e-39 336 245
0.020983893 0.704 -0.0061717331 2.8537485e-39 337 245
0.022281358 0.70599997 -0.0061892662 3.0395817e-39 338 245
0.023519212 0.70599997 -0.0061892662 3.5927555e-39 339 245
0.024757065 0.70599997 -0.0061892662 2.581465e-39 340 245
0.025994917 0.70599997 -0.0061892662 4.4250189e-39 341 245
-0.048823316 0.71399999 -0.0075112795 1.6776718e-38 281 246
-0.047571439 0.71399999 -0.0075112795 1.6222115e-38 282 246
-0.046124939 0.71100003 -0.0074797203 1.3917224e-38 283 246
-0.044878319 0.71100003 -0.0074797203 9.1316988e-39 284 246
-0.043570329 0.70999998 -0.0074691991 2.3095823e-39 285 246
-0.042325463 0.70999998 -0.0074691991 3.3107862e-39 286 246
-0.040964879 0.708 -0.0074481601 4.4167751e-39 287 246
-0.039667413 0.70700002 -0.0074376399 4.5975594e-39 288 246
-0.038427804 0.70700002 -0.0074376399 4.4128094e-39 289 246
-0.037030395 0.704 -0.0074060797 4.228767e-39 290 246
-0.035745207 0.70300001 -0.0073955595 4.228767e-39 291 246
-0.034414422 0.70099998 -0.0073745195 4.3209655e-39 292 246
-0.033137999 0.69999999 -0.0073639993 4.3209655e-39 293 246
-0.031819493 0.69800001 -0.0073429602 4.9638308e-39 294 246
-0.030595668 0.69800001 -0.0073429602 5.5173647e-39 295 246
-0.02932976 0.69700003 -0.00733244 5.247263e-39 296 246
-0.028107686 0.69700003 -0.00733244 6.5380018e-39 297 246
-0.026847038 0.69599998 -0.0073219193 6.9982583e-39 298 246
-0.025626717 0.69599998 -0.0073219193 5.2465413e-39 299 246
-0.0244064 0.69599998 -0.0073219193 5.610282e-39 300 246
-0.023186078 0.69599998 -0.0073219193 5.4258907e-39 301 246
-0.021965759 0.69599998 -0.0073219193 4.8755854e-39 302 246
-0.020745439 0.69599998 -0.0073219193 4.6911927e-39 303 246
-0.019525118 0.69599998 -0.0073219193 4.7815779e-39 304 246
-0.0182522 0.69400001 -0.0073008798 4.5968279e-39 305 246
-0.017035386 0.69400001 -0.0073008798 4.6886606e-39 306 246
-0.015818574 0.69400001 -0.0073008798 4.5964636e-39 307 246
-0.01460176 0.69400001 -0.0073008798 4.779773e-39 308 246
-0.013384946 0.69400001 -0.0073008798 4.5957419e-39 309 246
-0.012168133 0.69400001 -0.0073008798 4.4120695e-39 310 246
-0.01095132 0.69400001 -0.0073008798 4.5042651e-39 311 246
-0.0097345067 0.69400001 -0.0073008798 4.5957419e-39 312 246
-0.0085176928 0.69400001 -0.0073008798 4.5957419e-39 313 246
-0.0073008798 0.69400001 -0.0073008798 4.5035463e-39 314 246
-0.0060753003 0.69300002 -0.0072903596 4.5035463e-39 315 246
-0.00486024 0.69300002 -0.0072903596 4.3195179e-39 316 246
-0.0036451798 0.69300002 -0.0072903596 4.1354868e-39 317 246
-0.00243012 0.69300002 -0.0072903596 4.04401e-39 318 246
-0.00121506 0.69300002 -0.0072903596 4.04401e-39 319 246
0 0.69300002 -0.0072903596 3.7692182e-39 320 246
0.00121506 0.69300002 -0.0072903596 3.9536095e-39 321 246
0.00243012 0.69300002 -0.0072903596 3.8614166e-39 322 246
0.0036504399 0.69400001 -0.0073008798 3.9536123e-39 323 246
0.0048672534 0.69400001 -0.0073008798 3.5859158e-39 324 246
0.0060840664 0.69400001 -0.0073008798 3.5859158e-39 325 246
0.0073219193 0.69599998 -0.0073219193 3.219294e-39 326 246
0.0085422397 0.69599998 -0.0073219193 3.1267397e-39 327 246
0.0097765867 0.69700003 -0.00733244 3.3096918e-39 328 246
0.01101444 0.69800001 -0.0073429602 3.3096918e-39 329 246
0.012238266 0.69800001 -0.0073429602 3.309689e-39 330 246
0.013500666 0.69999999 -0.0073639993 3.309689e-39 331 246
0.014727999 0.69999999 -0.0073639993 3.217492e-39 332 246
0.015978126 0.70099998 -0.0073745195 3.217492e-39 333 246
0.017207211 0.70099998 -0.0073745195 2.759032e-39 334 246
0.018488899 0.70300001 -0.0073955595 2.8515877e-39 335 246
0.019749546 0.704 -0.0074060797 2.6686356e-39 336 246
0.020983893 0.704 -0.0074060797 3.0374167e-39 337 246
0.022218239 0.704 -0.0074060797 3.5905877e-39 338 246
0.023452586 0.704 -0.0074060797 3.774979e-39 339 246
0.024686933 0.704 -0.0074060797 4.3266912e-39 340 246
-0.048823316 0.71399999 -0.0087631596 1.723302e-38 281 247
-0.047571439 0.71399999 -0.0087631596 1.5944446e-38 282 247
-0.046254687 0.713 -0.0087508867 1.1796003e-38 283 247
-0.044878319 0.71100003 -0.0087263398 5.6235775e-39 284 247
-0.043570329 0.70999998 -0.0087140659 2.0283067e-39 285 247
-0.042325463 0.70999998 -0.0087140659 4.4153163e-39 286 247
-0.040964879 0.708 -0.008689519 4.6915431e-39 287 247
-0.039667413 0.70700002 -0.008677247 4.5064301e-39 288 247
-0.038427804 0.70700002 -0.008677247 4.1380063e-39 289 247
-0.037030395 0.704 -0.0086404262 4.0461736e-39 290 247
-0.035745207 0.70300001 -0.0086281532 3.8621425e-39 291 247
-0.034414422 0.70099998 -0.0086036054 3.953262e-39 292 247
-0.033137999 0.69999999 -0.0085913334 4.1376532e-39 293 247
-0.031819493 0.69800001 -0.0085667865 4.4124591e-39 294 247
-0.030595668 0.69800001 -0.0085667865 4.6894047e-39 295 247
-0.02932976 0.69700003 -0.0085545136 4.8748819e-39 296 247
-0.028107686 0.69700003 -0.0085545136 5.612447e-39 297 247
-0.026847038 0.69599998 -0.0085422397 5.9812295e-39 298 247
-0.025626717 0.69599998 -0.0085422397 5.3358601e-39 299 247
-0.0244064 0.69599998 -0.0085422397 5.1510989e-39 300 247
-0.023186078 0.69599998 -0.0085422397 4.8745134e-39 301 247
-0.021965759 0.69599998 -0.0085422397 4.6915431e-39 302 247
-0.020745439 0.69599998 -0.0085422397 4.4153163e-39 303 247
-0.019525118 0.69599998 -0.0085422397 4.6893794e-39 304 247
-0.0182522 0.69400001 -0.0085176928 4.5971838e-39 305 247
-0.017035386 0.69400001 -0.0085176928 4.5964607e-39 306 247
-0.015818574 0.69400001 -0.0085176928 4.5042651e-39 307 247
-0.01460176 0.69400001 -0.0085176928 4.5039092e-39 308 247
-0.013384946 0.69400001 -0.0085176928 4.4117136e-39 309 247
-0.012168133 0.69400001 -0.0085176928 4.4117136e-39 310 247
-0.01095132 0.69400001 -0.0085176928 4.4117136e-39 311 247
-0.0097345067 0.69400001 -0.0085176928 4.5035463e-39 312 247
-0.0085176928 0.69400001 -0.0085176928 4.5035463e-39 313 247
-0.0073008798 0.69400001 -0.0085176928 4.4113506e-39 314 247
-0.0060753003 0.69300002 -0.0085054198 4.319155e-39 315 247
-0.00486024 0.69300002 -0.0085054198 4.0436541e-39 316 247
-0.0036451798 0.69300002 -0.0085054198 3.9514585e-39 317 247
-0.00243012 0.69300002 -0.0085054198 3.7688651e-39 318 247
-0.00121506 0.69300002 -0.0085054198 3.7688651e-39 319 247
0 0.69300002 -0.0085054198 3.6777457e-39 320 247
0.00121506 0.69300002 -0.0085054198 3.6777457e-39 321 247
0.00243012 0.69300002 -0.0085054198 3.4029594e-39 322 247
0.0036504399 0.69400001 -0.0085176928 3.3104051e-39 323 247
0.0048672534 0.69400001 -0.0085176928 3.4018874e-39 324 247
0.0060840664 0.69400001 -0.0085176928 3.4018874e-39 325 247
0.0073219193 0.69599998 -0.0085422397 3.218215e-39 326 247
0.0085422397 0.69599998 -0.0085422397 3.218215e-39 327 247
0.0097765867 0.69700003 -0.0085545136 3.0345441e-39 328 247
0.01101444 0.69800001 -0.0085667865 2.942347e-39 329 247
0.012238266 0.69800001 -0.0085667865 2.7590348e-39 330 247
0.013500666 0.69999999 -0.0085913334 2.7590348e-39 331 247
0.014727999 0.69999999 -0.0085913334 2.6668391e-39 332 247
0.015978126 0.70099998 -0.0086036054 2.6668391e-39 333 247
0.017256306 0.70300001 -0.0086281532 2.759755e-39 334 247
0.018488899 0.70300001 -0.0086281532 2.759755e-39 335 247
0.019749546 0.704 -0.0086404262 2.5760868e-39 336 247
0.020983893 0.704 -0.0086404262 2.944868e-39 337 247
0.02218668 0.70300001 -0.0086281532 3.2228814e-39 338 247
0.023419274 0.70300001 -0.0086281532 4.4214246e-39 339 247
0.024686933 0.704 -0.0086404262 5.7056571e-39 340 247
0.02592128 0.704 -0.0086404262 1.0868612e-38 341 247
-0.048823316 0.71399999 -0.01001504 1.714261e-38 281 248
-0.047571439 0.71399999 -0.01001504 1.6037351e-38 282 248
-0.046254687 0.713 -0.010001013 1.0044635e-38 283 248
-0.044878319 0.71100003 -0.0099729598 3.5001927e-39 284 248
-0.043631699 0.71100003 -0.0099729598 2.6700733e-39 285 248
-0.042325463 0.70999998 -0.0099589331 5.0581648e-39 286 248
-0.041080594 0.70999998 -0.0099589331 4.9659691e-39 287 248
-0.039723519 0.708 -0.0099308798 4.6893794e-39 288 248
-0.038427804 0.70700002 -0.0099168532 4.4127926e-39 289 248
-0.037135597 0.70599997 -0.0099028256 3.8621397e-39 290 248
-0.035643511 0.70099998 -0.0098326923 3.7699441e-39 291 248
-0.034365334 0.69999999 -0.0098186666 4.0447359e-39 292 248
-0.033137999 0.69999999 -0.0098186666 4.0447359e-39 293 248
-0.031819493 0.69800001 -0.0097906133 4.5035589e-39 294 248
-0.030595668 0.69800001 -0.0097906133 4.6883103e-39 295 248
-0.02932976 0.69700003 -0.0097765867 4.5975566e-39 296 248
