# .PCD v.7 - Point Cloud Data file format
FIELDS x y z rgb imX imY
SIZE 4 4 4 4 4 4
TYPE F F F F F F
COUNT 1 1 1 1 1 1
WIDTH 833
HEIGHT 1
VIEWPOINT 0 0 0 1 0 0 0
POINTS 833
DATA ascii
-0.0036451798 0.69300002 0.00243012 4.5968279e-39 317 238
-0.00243012 0.69300002 0.00243012 4.4142345e-39 318 238
-0.00121506 0.69300002 0.00243012 4.4142345e-39 319 238
0 0.69300002 0.00243012 4.4142317e-39 320 238
0.0012168133 0.69400001 0.0024336267 4.4142317e-39 321 238
0.0024336267 0.69400001 0.0024336267 3.9561304e-39 322 238
0.0036504399 0.69400001 0.0024336267 3.9561304e-39 323 238
0.0048812795 0.69599998 0.0024406398 3.7724622e-39 324 238
0.0061015999 0.69599998 0.0024406398 3.8646579e-39 325 238
0.0073219193 0.69599998 0.0024406398 3.7731811e-39 326 238
0.0085545136 0.69700003 0.0024441467 3.7731811e-39 327 238
0.0097906133 0.69800001 0.0024476533 3.7731811e-39 328 238
0.01101444 0.69800001 0.0024476533 3.7731811e-39 329 238
0.012238266 0.69800001 0.0024476533 3.5898716e-39 330 238
0.013500666 0.69999999 0.0024546667 3.6820673e-39 331 238
0.014727999 0.69999999 0.0024546667 3.5902374e-39 332 238
0.015978126 0.70099998 0.0024581731 3.682433e-39 333 238
0.017207211 0.70099998 0.0024581731 3.7746286e-39 334 238
0.018515198 0.704 0.0024686933 3.9590213e-39 335 238
0.019749546 0.704 0.0024686933 3.8679005e-39 336 238
0.021073313 0.70700002 0.0024792133 3.7757048e-39 337 238
0.022407599 0.70999998 0.0024897333 3.7739098e-39 338 238
0.023752406 0.713 0.0025002533 3.6817141e-39 339 238
0.025037598 0.71399999 0.0025037599 3.5902346e-39 340 238
0.026289478 0.71399999 0.0025037599 2.5764428e-39 341 238
0.027618507 0.71600002 0.0025107733 4.0544441e-39 342 238
0.028873893 0.71600002 0.0025107733 1.0323387e-38 343 238
0.030171359 0.71700001 0.0025142799 1.3737502e-38 344 238
-0.045067675 0.71399999 0.00125188 1.245219e-38 284 239
-0.043631699 0.71100003 0.00124662 6.7364201e-39 285 239
-0.042385083 0.71100003 0.00124662 4.5158104e-39 286 239
-0.041080594 0.70999998 0.0012448666 2.7637333e-39 287 239
-0.039723519 0.708 0.00124136 5.5205919e-39 288 239
-0.038427804 0.70700002 0.0012396066 6.2581569e-39 289 239
-0.037135597 0.70599997 0.0012378532 6.0741258e-39 290 239
-0.035796054 0.704 0.0012343467 5.7978976e-39 291 239
-0.034414422 0.70099998 0.0012290865 5.8875695e-39 292 239
-0.033137999 0.69999999 0.0012273333 5.8875695e-39 293 239
-0.031910665 0.69999999 0.0012273333 5.7042544e-39 294 239
-0.030595668 0.69800001 0.0012238267 5.8886457e-39 295 239
-0.029371841 0.69800001 0.0012238267 5.7986137e-39 296 239
-0.028107686 0.69700003 0.0012220733 7.2741039e-39 297 239
-0.026885614 0.69700003 0.0012220733 7.373505e-39 298 239
-0.025626717 0.69599998 0.0012203199 8.5716895e-39 299 239
-0.0244064 0.69599998 0.0012203199 9.5818841e-39 300 239
-0.023119451 0.69400001 0.0012168133 9.2127429e-39 301 239
-0.021902639 0.69400001 0.0012168133 8.6566852e-39 302 239
-0.020745439 0.69599998 0.0012203199 7.7347275e-39 303 239
-0.019525118 0.69599998 0.0012203199 6.9949961e-39 304 239
-0.0182522 0.69400001 0.0012168133 6.1648753e-39 305 239
-0.017035386 0.69400001 0.0012168133 5.614207e-39 306 239
-0.015818574 0.69400001 0.0012168133 5.0610332e-39 307 239
-0.01460176 0.69400001 0.0012168133 5.151431e-39 308 239
-0.01336566 0.69300002 0.00121506 4.8748427e-39 309 239
-0.012150601 0.69300002 0.00121506 5.0574389e-39 310 239
-0.010935539 0.69300002 0.00121506 5.0574389e-39 311 239
-0.0097204801 0.69300002 0.00121506 4.7812093e-39 312 239
-0.0085054198 0.69300002 0.00121506 4.7812093e-39 313 239
-0.0072903596 0.69300002 0.00121506 4.4131485e-39 314 239
-0.0060753003 0.69300002 0.00121506 4.4131485e-39 315 239
-0.00486024 0.69300002 0.00121506 4.2302006e-39 316 239
-0.0036451798 0.69300002 0.00121506 4.1380035e-39 317 239
-0.00243012 0.69300002 0.00121506 4.4135128e-39 318 239
-0.00121506 0.69300002 0.00121506 4.4135128e-39 319 239
0 0.69300002 0.00121506 4.4142317e-39 320 239
0.0012168133 0.69400001 0.0012168133 4.2302006e-39 321 239
0.0024336267 0.69400001 0.0012168133 3.9550584e-39 322 239
0.0036504399 0.69400001 0.0012168133 3.9550584e-39 323 239
0.0048672534 0.69400001 0.0012168133 3.9557801e-39 324 239
0.0060840664 0.69400001 0.0012168133 3.9557801e-39 325 239
0.0073219193 0.69599998 0.0012203199 3.7731839e-39 326 239
0.0085545136 0.69700003 0.0012220733 3.7731839e-39 327 239
0.0097765867 0.69700003 0.0012220733 3.7731811e-39 328 239
0.01101444 0.69800001 0.0012238267 3.7731811e-39 329 239
0.012238266 0.69800001 0.0012238267 3.6820673e-39 330 239
0.013462093 0.69800001 0.0012238267 3.5898716e-39 331 239
0.014727999 0.69999999 0.0012273333 3.5895157e-39 332 239
0.015955333 0.69999999 0.0012273333 3.5895157e-39 333 239
0.017207211 0.70099998 0.0012290865 3.6824302e-39 334 239
0.018488899 0.70300001 0.0012325933 3.6824302e-39 335 239
0.019749546 0.704 0.0012343467 3.9582968e-39 336 239
0.021043506 0.70599997 0.0012378532 3.5895157e-39 337 239
0.022407599 0.70999998 0.0012448666 3.5895157e-39 338 239
0.023685781 0.71100003 0.00124662 3.4973201e-39 339 239
0.025037598 0.71399999 0.00125188 3.4994739e-39 340 239
0.026289478 0.71399999 0.00125188 2.208735e-39 341 239
0.027618507 0.71600002 0.0012553866 4.2370361e-39 342 239
0.028873893 0.71600002 0.0012553866 1.0782926e-38 343 239
0.030171359 0.71700001 0.00125714 1.4013736e-38 344 239
0.031428497 0.71700001 0.00125714 1.5212279e-38 345 239
-0.043631699 0.71100003 -0 5.8101366e-39 285 240
-0.042325463 0.70999998 -0 3.8671942e-39 286 240
-0.041080594 0.70999998 -0 3.7749986e-39 287 240
-0.039723519 0.708 -0 5.2450938e-39 288 240
-0.038427804 0.70700002 -0 5.0607011e-39 289 240
-0.037135597 0.70599997 -0 4.9677964e-39 290 240
-0.035796054 0.704 -0 4.9677964e-39 291 240
-0.034414422 0.70099998 -0 5.0606983e-39 292 240
-0.033137999 0.69999999 -0 5.1528939e-39 293 240
-0.031819493 0.69800001 -0 5.7982507e-39 294 240
-0.030595668 0.69800001 -0 6.1666745e-39 295 240
-0.02932976 0.69700003 -0 6.1702773e-39 296 240
-0.028107686 0.69700003 -0 8.2904166e-39 297 240
-0.026885614 0.69700003 -0 9.3092601e-39 298 240
-0.025626717 0.69599998 -0 1.0507803e-38 299 240
-0.0244064 0.69599998 -0 1.2256997e-38 300 240
-0.023119451 0.69400001 -0 1.1796018e-38 301 240
-0.021902639 0.69400001 -0 1.031837e-38 302 240
-0.020745439 0.69599998 -0 7.9212838e-39 303 240
-0.019525118 0.69599998 -0 6.2610436e-39 304 240
-0.0182522 0.69400001 -0 5.4309228e-39 305 240
-0.017035386 0.69400001 -0 5.7042516e-39 306 240
-0.015818574 0.69400001 -0 5.519859e-39 307 240
-0.01460176 0.69400001 -0 5.335102e-39 308 240
-0.01336566 0.69300002 -0 4.9663195e-39 309 240
-0.012150601 0.69300002 -0 5.1489157e-39 310 240
-0.010935539 0.69300002 -0 5.05672e-39 311 240
-0.0097204801 0.69300002 -0 4.9648873e-39 312 240
-0.0085054198 0.69300002 -0 4.6886606e-39 313 240
-0.0072903596 0.69300002 -0 4.6883047e-39 314 240
-0.0060753003 0.69300002 -0 4.5961076e-39 315 240
-0.00486024 0.69300002 -0 4.3213186e-39 316 240
-0.0036451798 0.69300002 -0 4.4135156e-39 317 240
-0.00243012 0.69300002 -0 4.2302006e-39 318 240
-0.00121506 0.69300002 -0 4.2302006e-39 319 240
0 0.69300002 -0 3.9550556e-39 320 240
0.00121506 0.69300002 -0 3.9550556e-39 321 240
0.0024336267 0.69400001 -0 3.6795491e-39 322 240
0.0036504399 0.69400001 -0 3.8635817e-39 323 240
0.0048672534 0.69400001 -0 3.6809883e-39 324 240
0.0060840664 0.69400001 -0 3.8653795e-39 325 240
0.0073219193 0.69599998 -0 3.8653767e-39 326 240
0.0085545136 0.69700003 -0 3.7731811e-39 327 240
0.0097765867 0.69700003 -0 3.8653767e-39 328 240
0.01101444 0.69800001 -0 3.8653767e-39 329 240
0.012238266 0.69800001 -0 3.7731811e-39 330 240
0.013462093 0.69800001 -0 3.7731811e-39 331 240
0.01468592 0.69800001 -0 3.3140078e-39 332 240
0.015955333 0.69999999 -0 3.4980389e-39 333 240
0.017182667 0.69999999 -0 3.3143707e-39 334 240
0.018488899 0.70300001 -0 3.2221751e-39 335 240
0.019805651 0.70599997 -0 3.4973229e-39 336 240
0.021043506 0.70599997 -0 3.4973229e-39 337 240
0.022344479 0.708 -0 3.222531e-39 338 240
0.023685781 0.71100003 -0 3.4069223e-39 339 240
0.025002534 0.713 -0 3.224682e-39 340 240
0.026289478 0.71399999 -0 1.7491932e-39 341 240
0.027618507 0.71600002 -0 4.4210714e-39 342 240
0.028873893 0.71600002 -0 1.1612331e-38 343 240
0.030171359 0.71700001 -0 1.4752027e-38 344 240
0.031428497 0.71700001 -0 1.6318992e-38 345 240
-0.044878319 0.71100003 -0.00124662 1.1342599e-38 284 241
-0.043631699 0.71100003 -0.00124662 4.5204823e-39 285 241
-0.042325463 0.70999998 -0.0012448666 4.140184e-39 286 241
-0.040964879 0.708 -0.00124136 4.417131e-39 287 241
-0.039667413 0.70700002 -0.0012396066 5.1507275e-39 288 241
-0.038427804 0.70700002 -0.0012396066 5.0585319e-39 289 241
-0.037135597 0.70599997 -0.0012378532 4.8741421e-39 290 241
-0.035796054 0.704 -0.0012343467 4.9663377e-39 291 241
-0.034414422 0.70099998 -0.0012290865 5.0588977e-39 292 241
-0.033137999 0.69999999 -0.0012273333 5.5202359e-39 293 241
-0.031819493 0.69800001 -0.0012238267 5.9830119e-39 294 241
-0.030595668 0.69800001 -0.0012238267 7.3659464e-39 295 241
-0.02932976 0.69700003 -0.0012220733 7.4631797e-39 296 241
-0.028107686 0.69700003 -0.0012220733 1.041344e-38 297 241
-0.026847038 0.69599998 -0.0012203199 1.2902719e-38 298 241
-0.025626717 0.69599998 -0.0012203199 1.2902719e-38 299 241
-0.0244064 0.69599998 -0.0012203199 1.2904517e-38 300 241
-0.023119451 0.69400001 -0.0012168133 1.2535736e-38 301 241
-0.021902639 0.69400001 -0.0012168133 1.0042862e-38 302 241
-0.020745439 0.69599998 -0.0012203199 6.9082109e-39 303 241
-0.019525118 0.69599998 -0.0012203199 5.9830091e-39 304 241
-0.0182522 0.69400001 -0.0012168133 5.3376397e-39 305 241
-0.017035386 0.69400001 -0.0012168133 5.7035342e-39 306 241
-0.015818574 0.69400001 -0.0012168133 5.4269473e-39 307 241
-0.01460176 0.69400001 -0.0012168133 5.2425532e-39 308 241
-0.01336566 0.69300002 -0.00121506 5.058162e-39 309 241
-0.012150601 0.69300002 -0.00121506 4.9652433e-39 310 241
-0.010935539 0.69300002 -0.00121506 4.9652433e-39 311 241
-0.0097204801 0.69300002 -0.00121506 4.6893794e-39 312 241
-0.0085054198 0.69300002 -0.00121506 4.5971838e-39 313 241
-0.0072903596 0.69300002 -0.00121506 4.503912e-39 314 241
-0.0060753003 0.69300002 -0.00121506 4.5961076e-39 315 241
-0.00486024 0.69300002 -0.00121506 4.4135128e-39 316 241
-0.0036451798 0.69300002 -0.00121506 4.4135128e-39 317 241
-0.00243012 0.69300002 -0.00121506 4.2305565e-39 318 241
-0.00121506 0.69300002 -0.00121506 4.2305565e-39 319 241
0 0.69300002 -0.00121506 3.9554115e-39 320 241
0.00121506 0.69300002 -0.00121506 3.8632145e-39 321 241
0.0024336267 0.69400001 -0.0012168133 3.6802694e-39 322 241
0.0036504399 0.69400001 -0.0012168133 3.6802694e-39 323 241
0.0048672534 0.69400001 -0.0012168133 3.772465e-39 324 241
0.0060840664 0.69400001 -0.0012168133 3.8646607e-39 325 241
0.0073219193 0.69599998 -0.0012203199 3.8653823e-39 326 241
0.0085545136 0.69700003 -0.0012220733 3.8653823e-39 327 241
0.0097765867 0.69700003 -0.0012220733 3.6820673e-39 328 241
0.01101444 0.69800001 -0.0012238267 3.6820673e-39 329 241
0.012238266 0.69800001 -0.0012238267 3.7731839e-39 330 241
0.013462093 0.69800001 -0.0012238267 3.6809883e-39 331 241
0.01468592 0.69800001 -0.0012238267 3.4051216e-39 332 241
0.015955333 0.69999999 -0.0012273333 3.4973173e-39 333 241
0.017182667 0.69999999 -0.0012273333 3.314005e-39 334 241
0.018436298 0.70099998 -0.0012290865 3.2218094e-39 335 241
0.019805651 0.70599997 -0.0012378532 3.4051216e-39 336 241
0.021043506 0.70599997 -0.0012378532 3.4051216e-39 337 241
0.022312919 0.70700002 -0.0012396066 3.3150798e-39 338 241
0.023685781 0.71100003 -0.00124662 3.4072754e-39 339 241
0.025002534 0.713 -0.0012501266 3.3168749e-39 340 241
0.026289478 0.71399999 -0.00125188 1.3807666e-39 341 241
0.027618507 0.71600002 -0.0012553866 4.3274339e-39 342 241
0.028873893 0.71600002 -0.0012553866 1.2256258e-38 343 241
0.030171359 0.71700001 -0.00125714 1.53052e-38 344 241
0.031428497 0.71700001 -0.00125714 1.6780331e-38 345 241
-0.044878319 0.71100003 -0.0024932399 1.0512838e-38 284 242
-0.043631699 0.71100003 -0.0024932399 3.5059703e-39 285 242
-0.042325463 0.70999998 -0.0024897333 3.8621621e-39 286 242
-0.040964879 0.708 -0.00248272 4.9681496e-39 287 242
-0.039667413 0.70700002 -0.0024792133 4.8752225e-39 288 242
-0.038427804 0.70700002 -0.0024792133 4.6904711e-39 289 242
-0.037135597 0.70599997 -0.0024757064 4.5982782e-39 290 242
-0.035796054 0.704 -0.0024686933 4.5982782e-39 291 242
-0.034414422 0.70099998 -0.0024581731 4.7823206e-39 292 242
-0.033137999 0.69999999 -0.0024546667 5.3354929e-39 293 242
-0.031819493 0.69800001 -0.0024476533 6.2606876e-39 294 242
-0.030595668 0.69800001 -0.0024476533 7.6436221e-39 295 242
-0.02932976 0.69700003 -0.0024441467 8.5673763e-39 296 242
-0.028107686 0.69700003 -0.0024441467 1.124105e-38 297 242
-0.026847038 0.69599998 -0.0024406398 1.327222e-38 298 242
-0.025626717 0.69599998 -0.0024406398 1.2903798e-38 299 242
-0.0244064 0.69599998 -0.0024406398 1.1524101e-38 300 242
-0.023186078 0.69599998 -0.0024406398 9.0348186e-39 301 242
-0.021965759 0.69599998 -0.0024406398 8.1038772e-39 302 242
-0.020745439 0.69599998 -0.0024406398 5.9833777e-39 303 242
-0.019525118 0.69599998 -0.0024406398 6.3496267e-39 304 242
-0.0182522 0.69400001 -0.0024336267 5.8886485e-39 305 242
-0.017035386 0.69400001 -0.0024336267 5.5198618e-39 306 242
-0.015818574 0.69400001 -0.0024336267 5.1510807e-39 307 242
-0.01460176 0.69400001 -0.0024336267 5.33403e-39 308 242
-0.01336566 0.69300002 -0.00243012 5.1492786e-39 309 242
-0.012150601 0.69300002 -0.00243012 5.05672e-39 310 242
-0.010935539 0.69300002 -0.00243012 4.9645244e-39 311 242
-0.0097204801 0.69300002 -0.00243012 4.6886578e-39 312 242
-0.0085054198 0.69300002 -0.00243012 4.5964607e-39 313 242
-0.0072903596 0.69300002 -0.00243012 4.4131485e-39 314 242
-0.0060753003 0.69300002 -0.00243012 4.4131485e-39 315 242
-0.00486024 0.69300002 -0.00243012 4.4131485e-39 316 242
-0.0036451798 0.69300002 -0.00243012 4.597181e-39 317 242
-0.00243012 0.69300002 -0.00243012 4.2305565e-39 318 242
-0.00121506 0.69300002 -0.00243012 4.2305565e-39 319 242
0 0.69300002 -0.00243012 3.9554115e-39 320 242
0.00121506 0.69300002 -0.00243012 3.8632145e-39 321 242
0.0024336267 0.69400001 -0.0024336267 3.5873535e-39 322 242
0.0036504399 0.69400001 -0.0024336267 3.6795491e-39 323 242
0.0048672534 0.69400001 -0.0024336267 3.6799135e-39 324 242
0.0060840664 0.69400001 -0.0024336267 3.8646635e-39 325 242
0.0073219193 0.69599998 -0.0024406398 3.6817113e-39 326 242
0.0085545136 0.69700003 -0.0024441467 3.6817113e-39 327 242
0.0097765867 0.69700003 -0.0024441467 3.6820673e-39 328 242
0.01101444 0.69800001 -0.0024476533 3.6820673e-39 329 242
0.012238266 0.69800001 -0.0024476533 3.6809883e-39 330 242
0.013462093 0.69800001 -0.0024476533 3.6809883e-39 331 242
0.01468592 0.69800001 -0.0024476533 3.4051244e-39 332 242
0.015955333 0.69999999 -0.0024546667 3.1288963e-39 333 242
0.017182667 0.69999999 -0.0024546667 3.1296151e-39 334 242
0.018436298 0.70099998 -0.0024581731 3.1296151e-39 335 242
0.019749546 0.704 -0.0024686933 3.3129246e-39 336 242
0.020983893 0.704 -0.0024686933 3.4051216e-39 337 242
0.022281358 0.70599997 -0.0024757064 3.1314088e-39 338 242
0.023685781 0.71100003 -0.0024932399 3.5001899e-39 339 242
0.024932399 0.71100003 -0.0024932399 3.5920198e-39 340 242
0.026252659 0.713 -0.0025002533 1.4715203e-39 341 242
0.02754136 0.71399999 -0.0025037599 4.8788056e-39 342 242
0.028873893 0.71600002 -0.0025107733 1.3360804e-38 343 242
0.030171359 0.71700001 -0.0025142799 1.5765456e-38 344 242
0.031428497 0.71700001 -0.0025142799 1.7056194e-38 345 242
-0.044878319 0.71100003 -0.0037398601 9.1306268e-39 284 243
-0.043631699 0.71100003 -0.0037398601 2.4925414e-39 285 243
-0.042325463 0.70999998 -0.0037345996 3.954355e-39 286 243
-0.040964879 0.708 -0.00372408 4.7841156e-39 287 243
-0.039667413 0.70700002 -0.0037188199 4.8752168e-39 288 243
-0.038373452 0.70599997 -0.0037135598 4.5986286e-39 289 243
-0.037030395 0.704 -0.0037030398 4.5979097e-39 290 243
-0.035745207 0.70300001 -0.0036977797 4.5057141e-39 291 243
-0.034365334 0.69999999 -0.0036819996 4.6894019e-39 292 243
-0.033137999 0.69999999 -0.0036819996 5.5188024e-39 293 243
-0.031819493 0.69800001 -0.0036714801 6.5354795e-39 294 243
-0.030595668 0.69800001 -0.0036714801 8.0109683e-39 295 243
-0.02932976 0.69700003 -0.00366622 8.7517703e-39 296 243
-0.028107686 0.69700003 -0.00366622 1.1148498e-38 297 243
-0.026847038 0.69599998 -0.0036609597 1.2443188e-38 298 243
-0.025626717 0.69599998 -0.0036609597 1.2074047e-38 299 243
-0.0244064 0.69599998 -0.0036609597 9.4940073e-39 300 243
-0.023186078 0.69599998 -0.0036609597 4.5150831e-39 301 243
-0.021965759 0.69599998 -0.0036609597 5.336209e-39 302 243
-0.020745439 0.69599998 -0.0036609597 5.9815784e-39 303 243
-0.019525118 0.69599998 -0.0036609597 6.3496267e-39 304 243
-0.0182522 0.69400001 -0.0036504399 5.7964529e-39 305 243
-0.017035386 0.69400001 -0.0036504399 5.519859e-39 306 243
-0.015818574 0.69400001 -0.0036504399 5.0588822e-39 307 243
-0.01460176 0.69400001 -0.0036504399 5.2418302e-39 308 243
-0.013384946 0.69400001 -0.0036504399 5.0574389e-39 309 243
-0.012150601 0.69300002 -0.0036451798 5.1478339e-39 310 243
-0.010935539 0.69300002 -0.0036451798 4.9638027e-39 311 243
-0.0097204801 0.69300002 -0.0036451798 4.5964607e-39 312 243
-0.0085054198 0.69300002 -0.0036451798 4.5042651e-39 313 243
-0.0072903596 0.69300002 -0.0036451798 4.3216717e-39 314 243
-0.0060753003 0.69300002 -0.0036451798 4.3216717e-39 315 243
-0.00486024 0.69300002 -0.0036451798 4.3209529e-39 316 243
-0.0036346598 0.69099998 -0.0036346598 4.3209529e-39 317 243
-0.0024231065 0.69099998 -0.0036346598 4.0458079e-39 318 243
-0.00121506 0.69300002 -0.0036451798 4.0458079e-39 319 243
0 0.69300002 -0.0036451798 3.8624956e-39 320 243
0.00121506 0.69300002 -0.0036451798 3.8624956e-39 321 243
0.0024336267 0.69400001 -0.0036504399 3.7703098e-39 322 243
0.0036504399 0.69400001 -0.0036504399 3.6781142e-39 323 243
0.0048672534 0.69400001 -0.0036504399 3.4955236e-39 324 243
0.0060840664 0.69400001 -0.0036504399 3.7721119e-39 325 243
0.0073219193 0.69599998 -0.0036609597 3.6806323e-39 326 243
0.0085545136 0.69700003 -0.00366622 3.6806323e-39 327 243
0.0097765867 0.69700003 -0.00366622 3.7731839e-39 328 243
0.01101444 0.69800001 -0.0036714801 3.7731839e-39 329 243
0.012238266 0.69800001 -0.0036714801 3.4969571e-39 330 243
0.013462093 0.69800001 -0.0036714801 3.4044014e-39 331 243
0.014727999 0.69999999 -0.0036819996 3.1288963e-39 332 243
0.015955333 0.69999999 -0.0036819996 3.0363419e-39 333 243
0.017182667 0.69999999 -0.0036819996 3.0363419e-39 334 243
0.018488899 0.70300001 -0.0036977797 3.0363419e-39 335 243
0.019749546 0.704 -0.0037030398 3.0363419e-39 336 243
0.020983893 0.704 -0.0037030398 3.4051244e-39 337 243
0.022281358 0.70599997 -0.0037135598 3.4072754e-39 338 243
0.023652466 0.70999998 -0.0037345996 3.7756992e-39 339 243
0.024932399 0.71100003 -0.0037398601 3.775688e-39 340 243
0.026179021 0.71100003 -0.0037398601 1.1942202e-39 341 243
0.027502786 0.713 -0.0037503797 5.0635542e-39 342 243
0.028793238 0.71399999 -0.0037556398 1.4098724e-38 343 243
0.03012928 0.71600002 -0.00376616 1.6225359e-38 344 243
-0.046319555 0.71399999 -0.0050075199 1.2539701e-38 283 244
-0.045004558 0.713 -0.0050005065 6.9179289e-39 284 244
-0.043631699 0.71100003 -0.0049864799 2.1241162e-39 285 244
-0.042325463 0.70999998 -0.0049794666 4.8737861e-39 286 244
-0.040964879 0.708 -0.0049654399 5.1507331e-39 287 244
-0.039667413 0.70700002 -0.0049584266 4.508228e-39 288 244
-0.038373452 0.70599997 -0.0049514128 4.04761e-39 289 244
-0.037030395 0.704 -0.0049373866 4.5968279e-39 290 244
-0.035745207 0.70300001 -0.0049303733 4.5968279e-39 291 244
-0.034365334 0.69999999 -0.0049093333 4.5972034e-39 292 244
-0.033137999 0.69999999 -0.0049093333 5.3351272e-39 293 244
-0.031819493 0.69800001 -0.0048953067 5.8926268e-39 294 244
-0.030595668 0.69800001 -0.0048953067 7.1833656e-39 295 244
-0.02932976 0.69700003 -0.0048882933 7.9245264e-39 296 244
-0.028107686 0.69700003 -0.0048882933 1.0229419e-38 297 244
-0.026847038 0.69599998 -0.0048812795 1.0971302e-38 298 244
-0.025626717 0.69599998 -0.0048812795 8.9429985e-39 299 244
-0.0244064 0.69599998 -0.0048812795 7.100881e-39 300 244
-0.023186078 0.69599998 -0.0048812795 3.3208602e-39 301 244
-0.021965759 0.69599998 -0.0048812795 6.2567206e-39 302 244
-0.020745439 0.69599998 -0.0048812795 6.90209e-39 303 244
-0.019525118 0.69599998 -0.0048812795 6.1670305e-39 304 244
-0.0182522 0.69400001 -0.0048672534 5.4294654e-39 305 244
-0.017035386 0.69400001 -0.0048672534 5.4269445e-39 306 244
-0.015818574 0.69400001 -0.0048672534 5.058162e-39 307 244
-0.01460176 0.69400001 -0.0048672534 5.1492786e-39 308 244
-0.013384946 0.69400001 -0.0048672534 4.9648873e-39 309 244
-0.012150601 0.69300002 -0.00486024 4.87197e-39 310 244
-0.010935539 0.69300002 -0.00486024 4.779773e-39 311 244
-0.0097204801 0.69300002 -0.00486024 4.5042651e-39 312 244
-0.0085054198 0.69300002 -0.00486024 4.5042651e-39 313 244
-0.0072903596 0.69300002 -0.00486024 4.2291202e-39 314 244
-0.0060753003 0.69300002 -0.00486024 4.045089e-39 315 244
-0.00486024 0.69300002 -0.00486024 4.2284013e-39 316 244
-0.0036346598 0.69099998 -0.0048462129 4.2284013e-39 317 244
-0.0024231065 0.69099998 -0.0048462129 4.045089e-39 318 244
-0.00121506 0.69300002 -0.00486024 4.045089e-39 319 244
0 0.69300002 -0.00486024 3.7703e-39 320 244
0.00121506 0.69300002 -0.00486024 3.7703e-39 321 244
0.00243012 0.69300002 -0.00486024 3.6784701e-39 322 244
0.0036504399 0.69400001 -0.0048672534 3.6784701e-39 323 244
0.0048672534 0.69400001 -0.0048672534 3.3122057e-39 324 244
0.0060840664 0.69400001 -0.0048672534 3.4044014e-39 325 244
0.0073219193 0.69599998 -0.0048812795 3.6802694e-39 326 244
0.0085545136 0.69700003 -0.0048882933 3.6802694e-39 327 244
0.0097765867 0.69700003 -0.0048882933 3.772465e-39 328 244
0.01101444 0.69800001 -0.0048953067 3.6802694e-39 329 244
0.012238266 0.69800001 -0.0048953067 3.5880696e-39 330 244
0.013462093 0.69800001 -0.0048953067 3.4958739e-39 331 244
0.014727999 0.69999999 -0.0049093333 3.0366979e-39 332 244
0.015955333 0.69999999 -0.0049093333 2.9445022e-39 333 244
0.017207211 0.70099998 -0.0049163462 2.8526667e-39 334 244
0.018488899 0.70300001 -0.0049303733 2.6686356e-39 335 244
0.019749546 0.704 -0.0049373866 2.9445022e-39 336 244
0.020983893 0.704 -0.0049373866 3.3129246e-39 337 244
0.022281358 0.70599997 -0.0049514128 3.4072754e-39 338 244
0.023552528 0.70700002 -0.0049584266 3.5916667e-39 339 244
0.024827199 0.708 -0.0049654399 3.9586443e-39 340 244
0.026179021 0.71100003 -0.0049864799 9.1835496e-40 341 244
0.027502786 0.713 -0.0050005065 5.339418e-39 342 244
0.028793238 0.71399999 -0.0050075199 1.4651177e-38 343 244
0.03012928 0.71600002 -0.0050215465 1.6408657e-38 344 244
-0.046319555 0.71399999 -0.0062593995 1.1984356e-38 283 245
-0.045004558 0.713 -0.0062506334 5.6210622e-39 284 245
-0.043631699 0.71100003 -0.0062330998 2.9473889e-39 285 245
-0.042325463 0.70999998 -0.0062243328 4.7848191e-39 286 245
-0.040964879 0.708 -0.0062067998 4.6926235e-39 287 245
-0.039667413 0.70700002 -0.0061980332 4.5078651e-39 288 245
-0.038373452 0.70599997 -0.0061892662 4.2309194e-39 289 245
-0.037030395 0.704 -0.0061717331 4.4135156e-39 290 245
-0.035745207 0.70300001 -0.0061629666 4.3213186e-39 291 245
-0.034414422 0.70099998 -0.0061454331 4.6883201e-39 292 245
-0.033137999 0.69999999 -0.0061366665 5.2414938e-39 293 245
-0.031819493 0.69800001 -0.006119133 5.1550646e-39 294 245
-0.030595668 0.69800001 -0.006119133 6.3536077e-39 295 245
-0.02932976 0.69700003 -0.0061103669 7.5539488e-39 296 245
-0.028107686 0.69700003 -0.0061103669 9.490057e-39 297 245
-0.026847038 0.69599998 -0.0061015999 1.0044671e-38 298 245
-0.025626717 0.69599998 -0.0061015999 8.0163661e-39 299 245
-0.0244064 0.69599998 -0.0061015999 6.7270636e-39 300 245
-0.023186078 0.69599998 -0.0061015999 5.0671821e-39 301 245
-0.021965759 0.69599998 -0.0061015999 6.1681249e-39 302 245
-0.020745439 0.69599998 -0.0061015999 5.7989836e-39 303 245
-0.019525118 0.69599998 -0.0061015999 5.5213051e-39 304 245
-0.0182522 0.69400001 -0.0060840664 5.0606857e-39 305 245
-0.017035386 0.69400001 -0.0060840664 5.0581648e-39 306 245
-0.015818574 0.69400001 -0.0060840664 4.9659691e-39 307 245
-0.01460176 0.69400001 -0.0060840664 4.9648873e-39 308 245
-0.013384946 0.69400001 -0.0060840664 4.9648873e-39 309 245
-0.012150601 0.69300002 -0.0060753003 4.87197e-39 310 245
-0.010935539 0.69300002 -0.0060753003 4.779773e-39 311 245
-0.0097204801 0.69300002 -0.0060753003 4.5964607e-39 312 245
-0.0085054198 0.69300002 -0.0060753003 4.4120695e-39 313 245
-0.0072903596 0.69300002 -0.0060753003 4.045089e-39 314 245
-0.0060753003 0.69300002 -0.0060753003 3.9528934e-39 315 245
-0.00486024 0.69300002 -0.0060753003 3.9528934e-39 316 245
-0.0036451798 0.69300002 -0.0060753003 3.9528934e-39 317 245
-0.00243012 0.69300002 -0.0060753003 3.8614166e-39 318 245
-0.00121506 0.69300002 -0.0060753003 3.8614166e-39 319 245
0 0.69300002 -0.0060753003 3.5862717e-39 320 245
0.00121506 0.69300002 -0.0060753003 3.5862717e-39 321 245
0.00243012 0.69300002 -0.0060753003 3.4029594e-39 322 245
0.0036504399 0.69400001 -0.0060840664 3.4951551e-39 323 245
0.0048672534 0.69400001 -0.0060840664 3.2200073e-39 324 245
0.0060840664 0.69400001 -0.0060840664 3.3125617e-39 325 245
0.0073219193 0.69599998 -0.0061015999 3.5880724e-39 326 245
0.0085545136 0.69700003 -0.0061103669 3.5880724e-39 327 245
0.0097765867 0.69700003 -0.0061103669 3.4044014e-39 328 245
0.01101444 0.69800001 -0.006119133 3.4044014e-39 329 245
0.012238266 0.69800001 -0.006119133 3.1288935e-39 330 245
0.013462093 0.69800001 -0.006119133 3.0366979e-39 331 245
0.014727999 0.69999999 -0.0061366665 2.8526667e-39 332 245
0.015955333 0.69999999 -0.0061366665 2.8526667e-39 333 245
0.017207211 0.70099998 -0.0061454331 2.5764428e-39 334 245
0.018488899 0.70300001 -0.0061629666 2.5764428e-39 335 245
0.019749546 0.704 -0.0061717331 2.6686384e-39 336 245
0.020983893 0.704 -0.0061717331 3.2218122e-39 337 245
0.022281358 0.70599997 -0.0061892662 3.1321305e-39 338 245
0.023552528 0.70700002 -0.0061980332 3.4090775e-39 339 245
0.024827199 0.708 -0.0062067998 3.9579255e-39 340 245
0.026068559 0.708 -0.0062067998 1.3775324e-39 341 245
0.027309919 0.708 -0.0062067998 6.2592079e-39 342 245
-0.0479712 0.72000003 -0.0075743999 1.6683446e-38 282 246
-0.046643924 0.71899998 -0.0075638802 1.1704523e-38 283 246
-0.045067675 0.71399999 -0.0075112795 5.0657206e-39 284 246
-0.043631699 0.71100003 -0.0074797203 3.4980361e-39 285 246
-0.042325463 0.70999998 -0.0074691991 5.2439952e-39 286 246
-0.040964879 0.708 -0.0074481601 5.1517995e-39 287 246
-0.039667413 0.70700002 -0.0074376399 4.5078651e-39 288 246
-0.038373452 0.70599997 -0.0074271196 4.3231151e-39 289 246
-0.037030395 0.704 -0.0074060797 4.597181e-39 290 246
-0.035745207 0.70300001 -0.0073955595 4.597181e-39 291 246
-0.034414422 0.70099998 -0.0073745195 4.6883047e-39 292 246
-0.033137999 0.69999999 -0.0073639993 4.9648901e-39 293 246
-0.031819493 0.69800001 -0.0073429602 5.1510961e-39 294 246
-0.030595668 0.69800001 -0.0073429602 5.9812155e-39 295 246
-0.02932976 0.69700003 -0.00733244 6.0770223e-39 296 246
-0.028107686 0.69700003 -0.00733244 7.0911728e-39 297 246
-0.026847038 0.69599998 -0.0073219193 7.7340185e-39 298 246
-0.025626717 0.69599998 -0.0073219193 6.9964534e-39 299 246
-0.0244064 0.69599998 -0.0073219193 5.983728e-39 300 246
-0.023186078 0.69599998 -0.0073219193 5.246163e-39 301 246
-0.021965759 0.69599998 -0.0073219193 5.7046202e-39 302 246
-0.020745439 0.69599998 -0.0073219193 5.428392e-39 303 246
-0.019525118 0.69599998 -0.0073219193 5.5184241e-39 304 246
-0.0182522 0.69400001 -0.0073008798 5.3336741e-39 305 246
-0.017035386 0.69400001 -0.0073008798 5.058162e-39 306 246
-0.015818574 0.69400001 -0.0073008798 4.8737707e-39 307 246
-0.01460176 0.69400001 -0.0073008798 4.9652433e-39 308 246
-0.013384946 0.69400001 -0.0073008798 4.7808534e-39 309 246
-0.012168133 0.69400001 -0.0073008798 4.6886578e-39 310 246
-0.01095132 0.69400001 -0.0073008798 4.5042651e-39 311 246
-0.0097204801 0.69300002 -0.0072903596 4.2284013e-39 312 246
-0.0085054198 0.69300002 -0.0072903596 4.2284013e-39 313 246
-0.0072903596 0.69300002 -0.0072903596 3.9528934e-39 314 246
-0.0060753003 0.69300002 -0.0072903596 3.9528934e-39 315 246
-0.00486024 0.69300002 -0.0072903596 4.0440072e-39 316 246
-0.0036451798 0.69300002 -0.0072903596 4.0440072e-39 317 246
-0.00243012 0.69300002 -0.0072903596 3.7692182e-39 318 246
-0.00121506 0.69300002 -0.0072903596 3.8614138e-39 319 246
0 0.69300002 -0.0072903596 3.585906e-39 320 246
0.00121506 0.69300002 -0.0072903596 3.6781016e-39 321 246
0.00243012 0.69300002 -0.0072903596 3.4029566e-39 322 246
0.0036504399 0.69400001 -0.0073008798 3.4951523e-39 323 246
0.0048672534 0.69400001 -0.0073008798 3.4029566e-39 324 246
0.0060840664 0.69400001 -0.0073008798 3.4029566e-39 325 246
0.0073219193 0.69599998 -0.0073219193 3.4029566e-39 326 246
0.0085422397 0.69599998 -0.0073219193 3.4029566e-39 327 246
0.0097765867 0.69700003 -0.00733244 3.1270928e-39 328 246
0.01101444 0.69800001 -0.0073429602 3.1270928e-39 329 246
0.012238266 0.69800001 -0.0073429602 3.1270928e-39 330 246
0.013462093 0.69800001 -0.0073429602 3.1270928e-39 331 246
0.014727999 0.69999999 -0.0073639993 2.7601054e-39 332 246
0.015955333 0.69999999 -0.0073639993 2.7601054e-39 333 246
0.017207211 0.70099998 -0.0073745195 2.6679083e-39 334 246
0.018488899 0.70300001 -0.0073955595 2.7601054e-39 335 246
0.019749546 0.704 -0.0074060797 2.8530199e-39 336 246
0.020983893 0.704 -0.0074060797 3.1299655e-39 337 246
0.022281358 0.70599997 -0.0074271196 3.4079915e-39 338 246
0.023519212 0.70599997 -0.0074271196 3.5001871e-39 339 246
0.024757065 0.70599997 -0.0074271196 4.5096503e-39 340 246
-0.0479712 0.72000003 -0.0088367993 1.6774194e-38 282 247
-0.046514176 0.71700001 -0.0087999795 1.1887824e-38 283 247
-0.045067675 0.71399999 -0.0087631596 6.0744649e-39 284 247
-0.043754432 0.713 -0.0087508867 5.0599542e-39 285 247
-0.042325463 0.70999998 -0.0087140659 6.347456e-39 286 247
-0.040964879 0.708 -0.008689519 5.609891e-39 287 247
-0.039667413 0.70700002 -0.008677247 4.8744868e-39 288 247
-0.038373452 0.70599997 -0.0086649731 4.4138688e-39 289 247
-0.037030395 0.704 -0.0086404262 4.3216717e-39 290 247
-0.035745207 0.70300001 -0.0086281532 4.3216717e-39 291 247
-0.034414422 0.70099998 -0.0086036054 4.4127982e-39 292 247
-0.033137999 0.69999999 -0.0085913334 4.5968307e-39 293 247
-0.031819493 0.69800001 -0.0085667865 4.6897676e-39 294 247
-0.030595668 0.69800001 -0.0085667865 5.2429414e-39 295 247
-0.02932976 0.69700003 -0.0085545136 5.612447e-39 296 247
-0.028107686 0.69700003 -0.0085545136 6.0734251e-39 297 247
-0.026847038 0.69599998 -0.0085422397 6.7187777e-39 298 247
-0.025626717 0.69599998 -0.0085422397 6.1656053e-39 299 247
-0.0244064 0.69599998 -0.0085422397 5.5213079e-39 300 247
-0.023186078 0.69599998 -0.0085422397 5.0603298e-39 301 247
-0.021965759 0.69599998 -0.0085422397 5.2429288e-39 302 247
-0.020745439 0.69599998 -0.0085422397 5.1507331e-39 303 247
-0.019525118 0.69599998 -0.0085422397 5.0588878e-39 304 247
-0.0182522 0.69400001 -0.0085176928 5.0588878e-39 305 247
-0.017035386 0.69400001 -0.0085176928 4.9670411e-39 306 247
-0.015818574 0.69400001 -0.0085176928 4.6904556e-39 307 247
-0.01460176 0.69400001 -0.0085176928 5.0567172e-39 308 247
-0.013384946 0.69400001 -0.0085176928 4.872326e-39 309 247
-0.012168133 0.69400001 -0.0085176928 4.5957419e-39 310 247
-0.01095132 0.69400001 -0.0085176928 4.5957419e-39 311 247
-0.0097204801 0.69300002 -0.0085054198 4.2284013e-39 312 247
-0.0085054198 0.69300002 -0.0085054198 4.1362057e-39 313 247
-0.0072903596 0.69300002 -0.0085054198 3.9528934e-39 314 247
-0.0060753003 0.69300002 -0.0085054198 3.8606978e-39 315 247
-0.00486024 0.69300002 -0.0085054198 3.7688623e-39 316 247
-0.0036451798 0.69300002 -0.0085054198 3.5848312e-39 317 247
-0.00243012 0.69300002 -0.0085054198 3.4933544e-39 318 247
-0.00121506 0.69300002 -0.0085054198 3.58555e-39 319 247
0 0.69300002 -0.0085054198 3.4022378e-39 320 247
0.00121506 0.69300002 -0.0085054198 3.4022378e-39 321 247
0.00243012 0.69300002 -0.0085054198 3.4029566e-39 322 247
0.0036504399 0.69400001 -0.0085176928 3.4029566e-39 323 247
0.0048672534 0.69400001 -0.0085176928 3.1270928e-39 324 247
0.0060840664 0.69400001 -0.0085176928 3.1270928e-39 325 247
0.0073219193 0.69599998 -0.0085422397 3.0356189e-39 326 247
0.0085422397 0.69599998 -0.0085422397 2.759032e-39 327 247
0.0097765867 0.69700003 -0.0085545136 2.8515877e-39 328 247
0.01101444 0.69800001 -0.0085667865 2.8515877e-39 329 247
0.012238266 0.69800001 -0.0085667865 2.7597522e-39 330 247
0.013500666 0.69999999 -0.0085913334 2.7597522e-39 331 247
0.014727999 0.69999999 -0.0085913334 2.5767959e-39 332 247
0.015978126 0.70099998 -0.0086036054 2.5767959e-39 333 247
0.017207211 0.70099998 -0.0086036054 2.5767959e-39 334 247
0.018488899 0.70300001 -0.0086281532 2.5767959e-39 335 247
0.019749546 0.704 -0.0086404262 2.6697104e-39 336 247
0.020983893 0.704 -0.0086404262 3.1303298e-39 337 247
0.022281358 0.70599997 -0.0086649731 3.039932e-39 338 247
0.023519212 0.70599997 -0.0086649731 3.4090747e-39 339 247
0.024757065 0.70599997 -0.0086649731 4.0511805e-39 340 247
-0.0479712 0.72000003 -0.010099201 1.6866746e-38 282 248
-0.046514176 0.71700001 -0.01005712 1.2072573e-38 283 248
-0.045004558 0.713 -0.010001013 6.9031466e-39 284 248
-0.043631699 0.71100003 -0.0099729598 5.6124077e-39 285 248
-0.042325463 0.70999998 -0.0099589331 5.8879198e-39 286 248
-0.041080594 0.70999998 -0.0099589331 5.4269417e-39 287 248
-0.039723519 0.708 -0.0099308798 4.5989789e-39 288 248
-0.038373452 0.70599997 -0.0099028256 4.4145876e-39 289 248
-0.037030395 0.704 -0.0098747732 4.3213158e-39 290 248
-0.035643511 0.70099998 -0.0098326923 4.3213158e-39 291 248
-0.034414422 0.70099998 -0.0098326923 4.4127982e-39 292 248
-0.033137999 0.69999999 -0.0098186666 4.4127982e-39 293 248
-0.031819493 0.69800001 -0.0097906133 4.5979125e-39 294 248
-0.030595668 0.69800001 -0.0097906133 5.0585319e-39 295 248
-0.029371841 0.69800001 -0.0097906133 5.3336895e-39 296 248
-0.028107686 0.69700003 -0.0097765867 4.9652657e-39 297 248
-0.026885614 0.69700003 -0.0097765867 5.2429288e-39 298 248
-0.025663542 0.69700003 -0.0097765867 5.0581788e-39 299 248
-0.0244064 0.69599998 -0.0097625591 5.2422001e-39 300 248
-0.023186078 0.69599998 -0.0097625591 5.2422001e-39 301 248
-0.021965759 0.69599998 -0.0097625591 5.058885e-39 302 248
-0.020775247 0.69700003 -0.0097765867 5.058885e-39 303 248
-0.019525118 0.69599998 -0.0097625591 5.2425504e-39 304 248
-0.018304799 0.69599998 -0.0097625591 5.2425504e-39 305 248
-0.017084479 0.69599998 -0.0097625591 5.0585179e-39 306 248
-0.015818574 0.69400001 -0.0097345067 4.8737679e-39 307 248
-0.01460176 0.69400001 -0.0097345067 4.8737707e-39 308 248
-0.013384946 0.69400001 -0.0097345067 4.6893794e-39 309 248
-0.012168133 0.69400001 -0.0097345067 4.4127954e-39 310 248
-0.01095132 0.69400001 -0.0097345067 4.3205997e-39 311 248
-0.0097204801 0.69300002 -0.0097204801 4.1362085e-39 312 248
-0.0085054198 0.69300002 -0.0097204801 4.1362085e-39 313 248
-0.0073008798 0.69400001 -0.0097345067 4.0436541e-39 314 248
-0.0060753003 0.69300002 -0.0097204801 3.9514585e-39 315 248
-0.00486024 0.69300002 -0.0097204801 3.6759464e-39 316 248
-0.0036451798 0.69300002 -0.0097204801 3.7681434e-39 317 248
-0.00243012 0.69300002 -0.0097204801 3.4933544e-39 318 248
-0.00121506 0.69300002 -0.0097204801 3.58555e-39 319 248
0 0.69300002 -0.0097204801 3.4933544e-39 320 248
0.00121506 0.69300002 -0.0097204801 3.58555e-39 321 248
0.00243012 0.69300002 -0.0097204801 3.3104051e-39 322 248
0.0036504399 0.69400001 -0.0097345067 3.3104051e-39 323 248
0.0048672534 0.69400001 -0.0097345067 2.942703e-39 324 248
0.0060840664 0.69400001 -0.0097345067 2.942703e-39 325 248
0.0073219193 0.69599998 -0.0097625591 2.942703e-39 326 248
0.0085545136 0.69700003 -0.0097765867 2.942703e-39 327 248
0.0097765867 0.69700003 -0.0097765867 2.8501486e-39 328 248
0.01101444 0.69800001 -0.0097906133 2.8501486e-39 329 248
0.012238266 0.69800001 -0.0097906133 2.6675552e-39 330 248
0.013500666 0.69999999 -0.0098186666 2.6675552e-39 331 248
0.014727999 0.69999999 -0.0098186666 2.6679111e-39 332 248
0.015978126 0.70099998 -0.0098326923 2.7601082e-39 333 248
0.017256306 0.70300001 -0.0098607466 2.5767931e-39 334 248
0.018488899 0.70300001 -0.0098607466 2.5767931e-39 335 248
0.019749546 0.704 -0.0098747732 2.8530199e-39 336 248
0.020983893 0.704 -0.0098747732 3.2221625e-39 337 248
0.022281358 0.70599997 -0.0099028256 3.4994683e-39 338 248
0.023452586 0.704 -0.0098747732 4.052642e-39 339 248
0.024686933 0.704 -0.0098747732 4.7873008e-39 340 248
-0.0479712 0.72000003 -0.011361601 1.7234807e-38 282 249
-0.046449307 0.71600002 -0.01129848 1.2625024e-38 283 249
-0.045004558 0.713 -0.011251139 7.548516e-39 284 249
-0.043631699 0.71100003 -0.01121958 6.1655815e-39 285 249
-0.042325463 0.70999998 -0.011203799 5.8889988e-39 286 249
-0.041080594 0.70999998 -0.011203799 5.3358251e-39 287 249
-0.039723519 0.708 -0.01117224 4.8744896e-39 288 249
-0.038373452 0.70599997 -0.011140679 4.5060672e-39 289 249
-0.037030395 0.704 -0.011109119 4.5971838e-39 290 249
-0.035643511 0.70099998 -0.011061779 4.4127926e-39 291 249
-0.034365334 0.69999999 -0.011045999 4.3202438e-39 292 249
-0.033137999 0.69999999 -0.011045999 4.4127982e-39 293 249
-0.031819493 0.69800001 -0.01101444 4.4138842e-39 294 249
-0.030595668 0.69800001 -0.01101444 4.5060798e-39 295 249
-0.029371841 0.69800001 -0.01101444 4.5972062e-39 296 249
-0.028107686 0.69700003 -0.01099866 4.5972062e-39 297 249
-0.026885614 0.69700003 -0.01099866 4.5972034e-39 298 249
-0.025663542 0.69700003 -0.01099866 4.5972034e-39 299 249
-0.024441468 0.69700003 -0.01099866 4.781222e-39 300 249
-0.023186078 0.69599998 -0.010982879 4.8734176e-39 301 249
-0.021965759 0.69599998 -0.010982879 5.058162e-39 302 249
-0.020745439 0.69599998 -0.010982879 5.2425532e-39 303 249
-0.019525118 0.69599998 -0.010982879 5.058162e-39 304 249
-0.0182522 0.69400001 -0.01095132 5.058162e-39 305 249
-0.017035386 0.69400001 -0.01095132 5.2425504e-39 306 249
-0.015818574 0.69400001 -0.01095132 4.9663223e-39 307 249
-0.01460176 0.69400001 -0.01095132 4.9652433e-39 308 249
-0.013384946 0.69400001 -0.01095132 4.7808534e-39 309 249
-0.012168133 0.69400001 -0.01095132 4.5964636e-39 310 249
-0.01095132 0.69400001 -0.01095132 4.5039092e-39 311 249
-0.0097345067 0.69400001 -0.01095132 4.4117164e-39 312 249
-0.0085176928 0.69400001 -0.01095132 4.1354896e-39 313 249
-0.0073008798 0.69400001 -0.01095132 4.1354896e-39 314 249
-0.0060840664 0.69400001 -0.01095132 3.9507382e-39 315 249
-0.00486024 0.69300002 -0.010935539 3.9518144e-39 316 249
-0.0036451798 0.69300002 -0.010935539 3.7674232e-39 317 249
-0.00243012 0.69300002 -0.010935539 3.4933572e-39 318 249
-0.00121506 0.69300002 -0.010935539 3.4933572e-39 319 249
0 0.69400001 -0.01095132 3.4022406e-39 320 249
0.0012168133 0.69400001 -0.01095132 3.4022406e-39 321 249
0.0024336267 0.69400001 -0.01095132 3.4018846e-39 322 249
0.0036504399 0.69400001 -0.01095132 3.309689e-39 323 249
0.0048672534 0.69400001 -0.01095132 3.0341797e-39 324 249
0.0060840664 0.69400001 -0.01095132 2.9419841e-39 325 249
0.00733244 0.69700003 -0.01099866 2.8501486e-39 326 249
0.0085545136 0.69700003 -0.01099866 2.8501486e-39 327 249
0.0097906133 0.69800001 -0.01101444 2.8501486e-39 328 249
0.01101444 0.69800001 -0.01101444 2.942703e-39 329 249
0.012273333 0.69999999 -0.011045999 2.6679111e-39 330 249
0.013500666 0.69999999 -0.011045999 2.6679111e-39 331 249
0.014749039 0.70099998 -0.011061779 2.6675552e-39 332 249
0.015978126 0.70099998 -0.011061779 2.6675552e-39 333 249
0.017256306 0.70300001 -0.01109334 2.4842429e-39 334 249
0.018515198 0.704 -0.011109119 2.6686356e-39 335 249
0.019749546 0.704 -0.011109119 2.9444994e-39 336 249
0.020983893 0.704 -0.011109119 3.4976732e-39 337 249
0.022281358 0.70599997 -0.011140679 3.6849357e-39 338 249
0.023452586 0.704 -0.011109119 4.4225008e-39 339 249
0.024686933 0.704 -0.011109119 4.7890987e-39 340 249
-0.0479712 0.72000003 -0.012624 1.7511036e-38 282 250
-0.046449307 0.71600002 -0.012553867 1.3362593e-38 283 250
-0.045004558 0.713 -0.012501267 8.4708296e-39 284 250
-0.043570329 0.70999998 -0.012448666 6.5347214e-39 285 250
-0.042325463 0.70999998 -0.012448666 5.888996e-39 286 250
-0.040964879 0.708 -0.0124136 5.336181e-39 287 250
-0.039723519 0.708 -0.0124136 4.8737707e-39 288 250
-0.038427804 0.70700002 -0.012396066 4.6893794e-39 289 250
-0.037030395 0.704 -0.012343466 4.5964636e-39 290 250
-0.035643511 0.70099998 -0.012290866 4.5039092e-39 291 250
-0.034365334 0.69999999 -0.012273333 4.3205997e-39 292 250
-0.033137999 0.69999999 -0.012273333 4.3205997e-39 293 250
-0.031819493 0.69800001 -0.012238266 4.1376532e-39 294 250
-0.030595668 0.69800001 -0.012238266 4.2298502e-39 295 250
-0.029371841 0.69800001 -0.012238266 4.4124422e-39 296 250
-0.028107686 0.69700003 -0.012220734 4.4124422e-39 297 250
-0.026885614 0.69700003 -0.012220734 4.5957545e-39 298 250
-0.025663542 0.69700003 -0.012220734 4.5957545e-39 299 250
-0.024441468 0.69700003 -0.012220734 4.5961104e-39 300 250
-0.023186078 0.69599998 -0.0122032 4.9645342e-39 301 250
-0.021965759 0.69599998 -0.0122032 4.6904584e-39 302 250
-0.020745439 0.69599998 -0.0122032 4.9666852e-39 303 250
-0.019525118 0.69599998 -0.0122032 5.0588822e-39 304 250
-0.0182522 0.69400001 -0.012168133 5.0588822e-39 305 250
-0.017035386 0.69400001 -0.012168133 5.2425532e-39 306 250
-0.015818574 0.69400001 -0.012168133 4.9659663e-39 307 250
-0.01460176 0.69400001 -0.012168133 4.9652433e-39 308 250
-0.013384946 0.69400001 -0.012168133 4.7808534e-39 309 250
-0.012168133 0.69400001 -0.012168133 4.7797758e-39 310 250
-0.01095132 0.69400001 -0.012168133 4.5031903e-39 311 250
-0.0097345067 0.69400001 -0.012168133 4.4117164e-39 312 250
-0.0085176928 0.69400001 -0.012168133 4.3195207e-39 313 250
-0.0073008798 0.69400001 -0.012168133 4.1362085e-39 314 250
-0.0060840664 0.69400001 -0.012168133 3.9514585e-39 315 250
-0.00486024 0.69300002 -0.012150601 3.7681434e-39 316 250
-0.0036451798 0.69300002 -0.012150601 3.6759464e-39 317 250
-0.0024336267 0.69400001 -0.012168133 3.4008014e-39 318 250
-0.0012168133 0.69400001 -0.012168133 3.4008014e-39 319 250
0 0.69300002 -0.012150601 3.3104051e-39 320 250
0.00121506 0.69300002 -0.012150601 3.2182094e-39 321 250
0.00243012 0.69300002 -0.012150601 3.2182094e-39 322 250
0.0036504399 0.69400001 -0.012168133 3.0341769e-39 323 250
0.0048672534 0.69400001 -0.012168133 2.8505045e-39 324 250
0.0061015999 0.69599998 -0.0122032 2.8505045e-39 325 250
0.00733244 0.69700003 -0.012220734 2.8505045e-39 326 250
0.0085667865 0.69800001 -0.012238266 2.8505045e-39 327 250
0.0097906133 0.69800001 -0.012238266 2.8505045e-39 328 250
0.011045999 0.69999999 -0.012273333 2.8505045e-39 329 250
0.012273333 0.69999999 -0.012273333 2.759032e-39 330 250
0.013500666 0.69999999 -0.012273333 2.759032e-39 331 250
0.014749039 0.70099998 -0.012290866 2.759755e-39 332 250
0.016023712 0.70300001 -0.012325933 2.759755e-39 333 250
0.017256306 0.70300001 -0.012325933 2.6686356e-39 334 250
0.018515198 0.704 -0.012343466 2.8526667e-39 335 250
0.019749546 0.704 -0.012343466 3.4047545e-39 336 250
0.020983893 0.704 -0.012343466 4.0501239e-39 337 250
0.022281358 0.70599997 -0.012378532 4.5132502e-39 338 250
0.023519212 0.70599997 -0.012378532 5.066424e-39 339 250
-0.046254687 0.713 -0.013751393 1.4099075e-38 283 251
-0.045004558 0.713 -0.013751393 9.8523179e-39 284 251
-0.043570329 0.70999998 -0.013693533 7.1786446e-39 285 251
-0.042325463 0.70999998 -0.013693533 5.9822665e-39 286 251
-0.040964879 0.708 -0.013654959 5.5212883e-39 287 251
-0.039723519 0.708 -0.013654959 5.057083e-39 288 251
-0.038427804 0.70700002 -0.013635674 4.7808562e-39 289 251
-0.037030395 0.704 -0.013577812 4.5964607e-39 290 251
-0.035643511 0.70099998 -0.013519952 4.5042651e-39 291 251
-0.034414422 0.70099998 -0.013519952 4.4117136e-39 292 251
-0.033137999 0.69999999 -0.013500666 4.4117136e-39 293 251
-0.031910665 0.69999999 -0.013500666 4.229123e-39 294 251
-0.030595668 0.69800001 -0.013462093 4.229123e-39 295 251
-0.029371841 0.69800001 -0.013462093 4.3205997e-39 296 251
-0.028107686 0.69700003 -0.013442807 4.2284041e-39 297 251
-0.026885614 0.69700003 -0.013442807 4.5039092e-39 298 251
-0.025663542 0.69700003 -0.013442807 4.5039092e-39 299 251
-0.024441468 0.69700003 -0.013442807 4.5957447e-39 300 251
-0.023186078 0.69599998 -0.013423519 4.8719728e-39 301 251
-0.021965759 0.69599998 -0.013423519 4.5982628e-39 302 251
-0.020745439 0.69599998 -0.013423519 4.8744896e-39 303 251
-0.019525118 0.69599998 -0.013423519 5.058162e-39 304 251
-0.0182522 0.69400001 -0.013384946 5.2425532e-39 305 251
-0.017035386 0.69400001 -0.013384946 5.2425532e-39 306 251
-0.015818574 0.69400001 -0.013384946 4.9659663e-39 307 251
-0.01460176 0.69400001 -0.013384946 4.8737679e-39 308 251
-0.013384946 0.69400001 -0.013384946 4.597181e-39 309 251
-0.012168133 0.69400001 -0.013384946 4.5957447e-39 310 251
-0.01095132 0.69400001 -0.013384946 4.5031903e-39 311 251
-0.0097345067 0.69400001 -0.013384946 4.3195207e-39 312 251
-0.0085176928 0.69400001 -0.013384946 4.1354896e-39 313 251
-0.0073008798 0.69400001 -0.013384946 4.0436541e-39 314 251
-0.0060840664 0.69400001 -0.013384946 3.9514585e-39 315 251
-0.0048672534 0.69400001 -0.013384946 3.6759464e-39 316 251
-0.0036504399 0.69400001 -0.013384946 3.5837508e-39 317 251
-0.0024336267 0.69400001 -0.013384946 3.4011574e-39 318 251
-0.0012168133 0.69400001 -0.013384946 3.4933544e-39 319 251
0 0.69300002 -0.01336566 3.2185654e-39 320 251
0.00121506 0.69300002 -0.01336566 3.0345328e-39 321 251
0.00243012 0.69300002 -0.01336566 3.0345328e-39 322 251
0.0036504399 0.69400001 -0.013384946 2.9419785e-39 323 251
0.0048812795 0.69599998 -0.013423519 2.7583089e-39 324 251
0.0061015999 0.69599998 -0.013423519 2.7583089e-39 325 251
0.00733244 0.69700003 -0.013442807 2.8505045e-39 326 251
0.0085667865 0.69800001 -0.013462093 2.8505045e-39 327 251
0.0097906133 0.69800001 -0.013462093 2.8501486e-39 328 251
0.011045999 0.69999999 -0.013500666 2.8501486e-39 329 251
0.012273333 0.69999999 -0.013500666 2.759032e-39 330 251
0.013500666 0.69999999 -0.013500666 2.8515877e-39 331 251
0.014749039 0.70099998 -0.013519952 2.6675552e-39 332 251
0.016023712 0.70300001 -0.013558527 2.8519479e-39 333 251
0.017280852 0.704 -0.013577812 2.8530227e-39 334 251
0.018515198 0.704 -0.013577812 3.0374139e-39 335 251
0.019749546 0.704 -0.013577812 3.6824148e-39 336 251
0.020983893 0.704 -0.013577812 4.4203386e-39 337 251
0.022218239 0.704 -0.013577812 5.0667772e-39 338 251
0.023452586 0.704 -0.013577812 5.2511698e-39 339 251
-0.046060063 0.70999998 -0.014938398 1.4560047e-38 283 252
-0.044815198 0.70999998 -0.014938398 1.1050137e-38 284 252
-0.043570329 0.70999998 -0.014938398 8.1920721e-39 285 252
-0.042325463 0.70999998 -0.014938398 6.9949765e-39 286 252
-0.040964879 0.708 -0.01489632 5.5198464e-39 287 252
-0.039723519 0.708 -0.01489632 4.9648873e-39 288 252
-0.038427804 0.70700002 -0.01487528 4.6886606e-39 289 252
-0.037030395 0.704 -0.014812159 4.7790541e-39 290 252
-0.035796054 0.704 -0.014812159 4.7790541e-39 291 252
-0.034414422 0.70099998 -0.014749039 4.5946657e-39 292 252
-0.03318534 0.70099998 -0.014749039 4.5946657e-39 293 252
-0.031910665 0.69999999 -0.014727999 4.3205997e-39 294 252
-0.030683333 0.69999999 -0.014727999 4.3205997e-39 295 252
-0.029371841 0.69800001 -0.01468592 4.3205997e-39 296 252
-0.028148014 0.69800001 -0.01468592 4.1362085e-39 297 252
-0.026885614 0.69700003 -0.01466488 4.3195207e-39 298 252
-0.025663542 0.69700003 -0.01466488 4.3195207e-39 299 252
-0.024441468 0.69700003 -0.01466488 4.2284041e-39 300 252
-0.023186078 0.69599998 -0.014643839 4.3205997e-39 301 252
-0.021965759 0.69599998 -0.014643839 4.5968307e-39 302 252
-0.020775247 0.69700003 -0.01466488 4.781222e-39 303 252
-0.019525118 0.69599998 -0.014643839 4.6901081e-39 304 252
-0.0182522 0.69400001 -0.01460176 4.8741393e-39 305 252
-0.017035386 0.69400001 -0.01460176 4.8744924e-39 306 252
