# .PCD v.7 - Point Cloud Data file format
FIELDS x y z rgb imX imY
SIZE 4 4 4 4 4 4
TYPE F F F F F F
COUNT 1 1 1 1 1 1
WIDTH 825
HEIGHT 1
VIEWPOINT 0 0 0 1 0 0 0
POINTS 825
DATA ascii
0 0.69300002 -0.00486024 4.2291202e-39 320 244
0.00121506 0.69300002 -0.00486024 4.2291202e-39 321 244
0.00243012 0.69300002 -0.00486024 3.8624956e-39 322 244
0.0036504399 0.69400001 -0.0048672534 3.8624956e-39 323 244
0.0048672534 0.69400001 -0.0048672534 3.5873507e-39 324 244
0.0060840664 0.69400001 -0.0048672534 3.6795463e-39 325 244
0.0073219193 0.69599998 -0.0048812795 3.6802666e-39 326 244
0.0085545136 0.69700003 -0.0048882933 3.6802666e-39 327 244
0.0097765867 0.69700003 -0.0048882933 3.4969515e-39 328 244
0.01101444 0.69800001 -0.0048953067 3.4969515e-39 329 244
0.012238266 0.69800001 -0.0048953067 3.5873507e-39 330 244
0.013462093 0.69800001 -0.0048953067 3.5873507e-39 331 244
0.014727999 0.69999999 -0.0049093333 3.4958739e-39 332 244
0.015955333 0.69999999 -0.0049093333 3.3118428e-39 333 244
0.017207211 0.70099998 -0.0049163462 2.9452183e-39 334 244
0.018488899 0.70300001 -0.0049303733 2.9452183e-39 335 244
0.019749546 0.704 -0.0049373866 3.037051e-39 336 244
0.020983893 0.704 -0.0049373866 3.4054748e-39 337 244
0.022281358 0.70599997 -0.0049514128 3.2246792e-39 338 244
0.023552528 0.70700002 -0.0049584266 3.6856574e-39 339 244
0.024792133 0.70700002 -0.0049584266 3.4076286e-39 340 244
0.026068559 0.708 -0.0049654399 3.6734198e-40 341 244
-0.047571439 0.71399999 -0.0062593995 1.6501588e-38 282 245
-0.046124939 0.71100003 -0.0062330998 1.3551688e-38 283 245
-0.044878319 0.71100003 -0.0062330998 8.8533182e-39 284 245
-0.043570329 0.70999998 -0.0062243328 2.7684052e-39 285 245
-0.042325463 0.70999998 -0.0062243328 3.955427e-39 286 245
-0.040964879 0.708 -0.0062067998 4.5086007e-39 287 245
-0.039667413 0.70700002 -0.0061980332 4.690827e-39 288 245
-0.038373452 0.70599997 -0.0061892662 4.4138814e-39 289 245
-0.037030395 0.704 -0.0061717331 4.4127982e-39 290 245
-0.035643511 0.70099998 -0.0061454331 4.4127982e-39 291 245
-0.034365334 0.69999999 -0.0061366665 4.5957601e-39 292 245
-0.033137999 0.69999999 -0.0061366665 5.0563795e-39 293 245
-0.031819493 0.69800001 -0.006119133 5.1518248e-39 294 245
-0.030595668 0.69800001 -0.006119133 6.3503679e-39 295 245
-0.02932976 0.69700003 -0.0061103669 7.0014925e-39 296 245
-0.028107686 0.69700003 -0.0061103669 7.9238075e-39 297 245
-0.026885614 0.69700003 -0.0061103669 8.5677294e-39 298 245
-0.025663542 0.69700003 -0.0061103669 7.4613818e-39 299 245
-0.024441468 0.69700003 -0.0061103669 6.4461509e-39 300 245
-0.023219392 0.69700003 -0.0061103669 5.1554121e-39 301 245
-0.02199732 0.69700003 -0.0061103669 5.610998e-39 302 245
-0.020745439 0.69599998 -0.0061015999 5.15038e-39 303 245
-0.019525118 0.69599998 -0.0061015999 5.0581676e-39 304 245
-0.0182522 0.69400001 -0.0060840664 4.9656132e-39 305 245
-0.017035386 0.69400001 -0.0060840664 4.8737679e-39 306 245
-0.015818574 0.69400001 -0.0060840664 4.7815723e-39 307 245
-0.014580719 0.69300002 -0.0060753003 4.6890137e-39 308 245
-0.01336566 0.69300002 -0.0060753003 4.6890137e-39 309 245
-0.012150601 0.69300002 -0.0060753003 4.4131485e-39 310 245
-0.010935539 0.69300002 -0.0060753003 4.4131485e-39 311 245
-0.0097204801 0.69300002 -0.0060753003 4.779773e-39 312 245
-0.0085054198 0.69300002 -0.0060753003 4.5957419e-39 313 245
-0.0072903596 0.69300002 -0.0060753003 4.5031931e-39 314 245
-0.0060753003 0.69300002 -0.0060753003 4.4109975e-39 315 245
-0.00486024 0.69300002 -0.0060753003 4.1358525e-39 316 245
-0.0036451798 0.69300002 -0.0060753003 4.1358525e-39 317 245
-0.00243012 0.69300002 -0.0060753003 3.9525375e-39 318 245
-0.00121506 0.69300002 -0.0060753003 4.0450918e-39 319 245
0 0.69300002 -0.0060753003 3.7699441e-39 320 245
0.00121506 0.69300002 -0.0060753003 3.7699441e-39 321 245
0.00243012 0.69300002 -0.0060753003 3.6784673e-39 322 245
0.0036504399 0.69400001 -0.0060840664 3.6784673e-39 323 245
0.0048672534 0.69400001 -0.0060840664 3.5862717e-39 324 245
0.0060840664 0.69400001 -0.0060840664 3.6784673e-39 325 245
0.0073219193 0.69599998 -0.0061015999 3.5880696e-39 326 245
0.0085545136 0.69700003 -0.0061103669 3.5880696e-39 327 245
0.0097765867 0.69700003 -0.0061103669 3.4047573e-39 328 245
0.01101444 0.69800001 -0.006119133 3.3125617e-39 329 245
0.012238266 0.69800001 -0.006119133 3.4947991e-39 330 245
0.013500666 0.69999999 -0.0061366665 3.4026035e-39 331 245
0.014727999 0.69999999 -0.0061366665 3.0352629e-39 332 245
0.015978126 0.70099998 -0.0061454331 3.0352629e-39 333 245
0.017207211 0.70099998 -0.0061454331 2.6686384e-39 334 245
0.018488899 0.70300001 -0.0061629666 2.6686384e-39 335 245
0.019749546 0.704 -0.0061717331 2.8519479e-39 336 245
0.020983893 0.704 -0.0061717331 3.3129246e-39 337 245
0.022281358 0.70599997 -0.0061892662 3.4072754e-39 338 245
0.023519212 0.70599997 -0.0061892662 3.9604492e-39 339 245
0.024757065 0.70599997 -0.0061892662 3.407623e-39 340 245
0.025994917 0.70599997 -0.0061892662 1.6562675e-39 341 245
-0.046124939 0.71100003 -0.0074797203 1.1705252e-38 283 246
-0.044878319 0.71100003 -0.0074797203 5.0722072e-39 284 246
-0.043570329 0.70999998 -0.0074691991 2.2137839e-39 285 246
-0.042325463 0.70999998 -0.0074691991 4.6007936e-39 286 246
-0.040964879 0.708 -0.0074481601 4.3245654e-39 287 246
-0.039723519 0.708 -0.0074481601 4.5979097e-39 288 246
-0.038373452 0.70599997 -0.0074271196 4.4135184e-39 289 246
-0.037030395 0.704 -0.0074060797 4.4127926e-39 290 246
-0.035643511 0.70099998 -0.0073745195 4.3205969e-39 291 246
-0.034365334 0.69999999 -0.0073639993 4.7794199e-39 292 246
-0.033137999 0.69999999 -0.0073639993 4.8719756e-39 293 246
-0.031819493 0.69800001 -0.0073429602 5.2407736e-39 294 246
-0.030595668 0.69800001 -0.0073429602 6.0708944e-39 295 246
-0.02932976 0.69700003 -0.00733244 5.8000682e-39 296 246
-0.028107686 0.69700003 -0.00733244 6.3528833e-39 297 246
-0.026885614 0.69700003 -0.00733244 6.626945e-39 298 246
-0.025663542 0.69700003 -0.00733244 5.9815756e-39 299 246
-0.024441468 0.69700003 -0.00733244 5.7053489e-39 300 246
-0.023219392 0.69700003 -0.00733244 5.1521751e-39 301 246
-0.02199732 0.69700003 -0.00733244 5.2429288e-39 302 246
-0.020745439 0.69599998 -0.0073219193 5.0581788e-39 303 246
-0.019525118 0.69599998 -0.0073219193 4.8737735e-39 304 246
-0.0182522 0.69400001 -0.0073008798 4.7815779e-39 305 246
-0.017035386 0.69400001 -0.0073008798 4.9641685e-39 306 246
-0.015818574 0.69400001 -0.0073008798 4.8719728e-39 307 246
-0.01460176 0.69400001 -0.0073008798 4.7797758e-39 308 246
-0.013384946 0.69400001 -0.0073008798 4.7797758e-39 309 246
-0.012150601 0.69300002 -0.0072903596 4.5957419e-39 310 246
-0.010935539 0.69300002 -0.0072903596 4.779773e-39 311 246
-0.0097204801 0.69300002 -0.0072903596 4.4117136e-39 312 246
-0.0085054198 0.69300002 -0.0072903596 4.4117136e-39 313 246
-0.0072903596 0.69300002 -0.0072903596 4.4110003e-39 314 246
-0.0060753003 0.69300002 -0.0072903596 4.4110003e-39 315 246
-0.00486024 0.69300002 -0.0072903596 3.9525403e-39 316 246
-0.0036451798 0.69300002 -0.0072903596 3.8603447e-39 317 246
-0.00243012 0.69300002 -0.0072903596 4.04401e-39 318 246
-0.00121506 0.69300002 -0.0072903596 4.04401e-39 319 246
0 0.69300002 -0.0072903596 3.9536095e-39 320 246
0.00121506 0.69300002 -0.0072903596 3.9536095e-39 321 246
0.00243012 0.69300002 -0.0072903596 3.9536123e-39 322 246
0.0036504399 0.69400001 -0.0073008798 3.8614166e-39 323 246
0.0048672534 0.69400001 -0.0073008798 3.58555e-39 324 246
0.0060840664 0.69400001 -0.0073008798 3.6777457e-39 325 246
0.0073219193 0.69599998 -0.0073219193 3.4022406e-39 326 246
0.0085545136 0.69700003 -0.00733244 3.4022406e-39 327 246
0.0097765867 0.69700003 -0.00733244 3.4018846e-39 328 246
0.01101444 0.69800001 -0.0073429602 3.4018846e-39 329 246
0.012238266 0.69800001 -0.0073429602 3.4022406e-39 330 246
0.013500666 0.69999999 -0.0073639993 3.3096862e-39 331 246
0.014727999 0.69999999 -0.0073639993 3.0341797e-39 332 246
0.015978126 0.70099998 -0.0073745195 3.0341797e-39 333 246
0.017207211 0.70099998 -0.0073745195 2.759755e-39 334 246
0.018515198 0.704 -0.0074060797 2.759755e-39 335 246
0.019749546 0.704 -0.0074060797 3.0356189e-39 336 246
0.020983893 0.704 -0.0074060797 3.3122057e-39 337 246
0.022281358 0.70599997 -0.0074271196 3.774616e-39 338 246
0.023452586 0.704 -0.0074060797 4.1430398e-39 339 246
0.024686933 0.704 -0.0074060797 3.8660676e-39 340 246
0.025994917 0.70599997 -0.0074271196 3.9582632e-39 341 246
-0.046124939 0.71100003 -0.0087263398 1.0873677e-38 283 247
-0.044878319 0.71100003 -0.0087263398 4.4153163e-39 284 247
-0.043631699 0.71100003 -0.0087263398 4.1383707e-39 285 247
-0.042325463 0.70999998 -0.0087140659 4.9692061e-39 286 247
-0.041080594 0.70999998 -0.0087140659 4.508228e-39 287 247
-0.039723519 0.708 -0.008689519 4.5979069e-39 288 247
-0.038373452 0.70599997 -0.0086649731 4.3213186e-39 289 247
-0.037030395 0.704 -0.0086404262 4.229123e-39 290 247
-0.035643511 0.70099998 -0.0086036054 4.3213186e-39 291 247
-0.034365334 0.69999999 -0.0085913334 4.3202438e-39 292 247
-0.033137999 0.69999999 -0.0085913334 4.4127982e-39 293 247
-0.031819493 0.69800001 -0.0085667865 4.5050106e-39 294 247
-0.030595668 0.69800001 -0.0085667865 5.0581844e-39 295 247
-0.02932976 0.69700003 -0.0085545136 5.1528996e-39 296 247
-0.028107686 0.69700003 -0.0085545136 5.3372922e-39 297 247
-0.026885614 0.69700003 -0.0085545136 5.5198828e-39 298 247
-0.025663542 0.69700003 -0.0085545136 5.2432945e-39 299 247
-0.024441468 0.69700003 -0.0085545136 5.1510989e-39 300 247
-0.023219392 0.69700003 -0.0085545136 4.8745134e-39 301 247
-0.02199732 0.69700003 -0.0085545136 4.7826667e-39 302 247
-0.020775247 0.69700003 -0.0085545136 4.6904711e-39 303 247
-0.019525118 0.69599998 -0.0085422397 5.0567298e-39 304 247
-0.0182522 0.69400001 -0.0085176928 4.7805031e-39 305 247
-0.017035386 0.69400001 -0.0085176928 4.6883047e-39 306 247
-0.015818574 0.69400001 -0.0085176928 4.6883047e-39 307 247
-0.01460176 0.69400001 -0.0085176928 4.8712498e-39 308 247
-0.013384946 0.69400001 -0.0085176928 4.8712498e-39 309 247
-0.012150601 0.69300002 -0.0085054198 4.7790569e-39 310 247
-0.010935539 0.69300002 -0.0085054198 4.6868613e-39 311 247
-0.0097204801 0.69300002 -0.0085054198 4.5031931e-39 312 247
-0.0085054198 0.69300002 -0.0085054198 4.4109975e-39 313 247
-0.0072903596 0.69300002 -0.0085054198 4.1358525e-39 314 247
-0.0060753003 0.69300002 -0.0085054198 4.0436569e-39 315 247
-0.00486024 0.69300002 -0.0085054198 3.8603447e-39 316 247
-0.0036451798 0.69300002 -0.0085054198 3.768149e-39 317 247
-0.00243012 0.69300002 -0.0085054198 3.5855528e-39 318 247
-0.00121506 0.69300002 -0.0085054198 3.5855528e-39 319 247
0 0.69300002 -0.0085054198 3.6777457e-39 320 247
0.00121506 0.69300002 -0.0085054198 3.6777457e-39 321 247
0.00243012 0.69300002 -0.0085054198 3.5862717e-39 322 247
0.0036504399 0.69400001 -0.0085176928 3.4022406e-39 323 247
0.0048672534 0.69400001 -0.0085176928 3.3104107e-39 324 247
0.0060840664 0.69400001 -0.0085176928 3.218215e-39 325 247
0.0073219193 0.69599998 -0.0085422397 3.218215e-39 326 247
0.0085545136 0.69700003 -0.0085545136 3.218215e-39 327 247
0.0097765867 0.69700003 -0.0085545136 3.2182122e-39 328 247
0.01101444 0.69800001 -0.0085667865 3.2182122e-39 329 247
0.012238266 0.69800001 -0.0085667865 2.942703e-39 330 247
0.013500666 0.69999999 -0.0085913334 2.942703e-39 331 247
0.014727999 0.69999999 -0.0085913334 2.6664832e-39 332 247
0.015978126 0.70099998 -0.0086036054 2.6664832e-39 333 247
0.017256306 0.70300001 -0.0086281532 2.4838898e-39 334 247
0.018515198 0.704 -0.0086404262 2.4838898e-39 335 247
0.019749546 0.704 -0.0086404262 2.5771616e-39 336 247
0.020983893 0.704 -0.0086404262 2.9459442e-39 337 247
0.022281358 0.70599997 -0.0086649731 3.3147239e-39 338 247
0.023452586 0.704 -0.0086404262 4.1448433e-39 339 247
0.024686933 0.704 -0.0086404262 3.8685815e-39 340 247
0.02592128 0.704 -0.0086404262 6.1734722e-39 341 247
-0.046124939 0.71100003 -0.0099729598 1.087403e-38 283 248
-0.044878319 0.71100003 -0.0099729598 4.9695593e-39 284 248
-0.043631699 0.71100003 -0.0099729598 4.6007782e-39 285 248
-0.042325463 0.70999998 -0.0099589331 5.2443483e-39 286 248
-0.041080594 0.70999998 -0.0099589331 4.8759259e-39 287 248
-0.039723519 0.708 -0.0099308798 4.4142317e-39 288 248
-0.038373452 0.70599997 -0.0099028256 4.2302006e-39 289 248
-0.037030395 0.704 -0.0098747732 4.229123e-39 290 248
-0.035796054 0.704 -0.0098747732 4.229123e-39 291 248
-0.034365334 0.69999999 -0.0098186666 4.503912e-39 292 248
-0.033137999 0.69999999 -0.0098186666 4.503912e-39 293 248
-0.031819493 0.69800001 -0.0097906133 4.7794255e-39 294 248
-0.030595668 0.69800001 -0.0097906133 4.9638181e-39 295 248
-0.02932976 0.69700003 -0.0097765867 4.8741421e-39 296 248
-0.028107686 0.69700003 -0.0097765867 4.9663377e-39 297 248
-0.026885614 0.69700003 -0.0097765867 5.0581788e-39 298 248
-0.025663542 0.69700003 -0.0097765867 4.8737861e-39 299 248
-0.024441468 0.69700003 -0.0097765867 4.6897578e-39 300 248
-0.023219392 0.69700003 -0.0097765867 4.6897578e-39 301 248
-0.02199732 0.69700003 -0.0097765867 4.9656188e-39 302 248
-0.020775247 0.69700003 -0.0097765867 4.8734232e-39 303 248
-0.019525118 0.69599998 -0.0097625591 4.9645342e-39 304 248
-0.0182522 0.69400001 -0.0097345067 4.7805031e-39 305 248
-0.017035386 0.69400001 -0.0097345067 4.6886606e-39 306 248
-0.015818574 0.69400001 -0.0097345067 4.7808562e-39 307 248
-0.01460176 0.69400001 -0.0097345067 4.6886606e-39 308 248
-0.013384946 0.69400001 -0.0097345067 4.6886606e-39 309 248
-0.012168133 0.69400001 -0.0097345067 4.5964636e-39 310 248
-0.01095132 0.69400001 -0.0097345067 4.4117136e-39 311 248
-0.0097204801 0.69300002 -0.0097204801 4.3195207e-39 312 248
-0.0085054198 0.69300002 -0.0097204801 4.3195207e-39 313 248
-0.0072903596 0.69300002 -0.0097204801 4.0436541e-39 314 248
-0.0060753003 0.69300002 -0.0097204801 4.0436541e-39 315 248
-0.00486024 0.69300002 -0.0097204801 4.0436541e-39 316 248
-0.0036451798 0.69300002 -0.0097204801 3.767426e-39 317 248
-0.00243012 0.69300002 -0.0097204801 3.584834e-39 318 248
-0.00121506 0.69300002 -0.0097204801 3.584834e-39 319 248
0 0.69300002 -0.0097204801 3.584834e-39 320 248
0.00121506 0.69300002 -0.0097204801 3.7688651e-39 321 248
0.00243012 0.69300002 -0.0097204801 3.4022406e-39 322 248
0.0036504399 0.69400001 -0.0097345067 3.3096862e-39 323 248
0.0048672534 0.69400001 -0.0097345067 3.309689e-39 324 248
0.0060840664 0.69400001 -0.0097345067 3.309689e-39 325 248
0.00733244 0.69700003 -0.0097765867 3.217492e-39 326 248
0.0085545136 0.69700003 -0.0097765867 3.217492e-39 327 248
0.0097906133 0.69800001 -0.0097906133 3.0341797e-39 328 248
0.01101444 0.69800001 -0.0097906133 3.0341797e-39 329 248
0.012273333 0.69999999 -0.0098186666 2.8501486e-39 330 248
0.013500666 0.69999999 -0.0098186666 2.8501486e-39 331 248
0.014727999 0.69999999 -0.0098186666 2.6668391e-39 332 248
0.015978126 0.70099998 -0.0098326923 2.7590348e-39 333 248
0.017256306 0.70300001 -0.0098607466 2.4842457e-39 334 248
0.018515198 0.704 -0.0098747732 2.5764428e-39 335 248
0.019749546 0.704 -0.0098747732 2.6686356e-39 336 248
0.020983893 0.704 -0.0098747732 3.1296123e-39 337 248
0.022281358 0.70599997 -0.0099028256 3.7753321e-39 338 248
0.023452586 0.704 -0.0098747732 4.5128985e-39 339 248
0.024686933 0.704 -0.0098747732 5.8911274e-39 340 248
0.02592128 0.704 -0.0098747732 9.6707895e-39 341 248
-0.047571439 0.71399999 -0.011266919 1.6957141e-38 282 249
-0.046124939 0.71100003 -0.01121958 1.170199e-38 283 249
-0.044878319 0.71100003 -0.01121958 6.1648627e-39 284 249
-0.043631699 0.71100003 -0.01121958 5.4272976e-39 285 249
-0.042325463 0.70999998 -0.011203799 5.6116889e-39 286 249
-0.041080594 0.70999998 -0.011203799 5.2425476e-39 287 249
-0.039723519 0.708 -0.01117224 4.6904556e-39 288 249
-0.038373452 0.70599997 -0.011140679 4.4138688e-39 289 249
-0.037030395 0.704 -0.011109119 4.0458079e-39 290 249
-0.035796054 0.704 -0.011109119 4.0458079e-39 291 249
-0.034365334 0.69999999 -0.011045999 4.3205997e-39 292 249
-0.033137999 0.69999999 -0.011045999 4.3205997e-39 293 249
-0.031819493 0.69800001 -0.01101444 4.5035589e-39 294 249
-0.030595668 0.69800001 -0.01101444 4.6883103e-39 295 249
-0.029371841 0.69800001 -0.01101444 4.5053609e-39 296 249
-0.028107686 0.69700003 -0.01099866 4.5975566e-39 297 249
-0.026885614 0.69700003 -0.01099866 4.5975594e-39 298 249
-0.025663542 0.69700003 -0.01099866 4.5053637e-39 299 249
-0.024441468 0.69700003 -0.01099866 4.6886732e-39 300 249
-0.023219392 0.69700003 -0.01099866 4.7808688e-39 301 249
-0.02199732 0.69700003 -0.01099866 4.8734204e-39 302 249
-0.020775247 0.69700003 -0.01099866 4.965616e-39 303 249
-0.019525118 0.69599998 -0.010982879 4.9648901e-39 304 249
-0.0182522 0.69400001 -0.01095132 5.0570858e-39 305 249
-0.017035386 0.69400001 -0.01095132 4.6893794e-39 306 249
-0.015818574 0.69400001 -0.01095132 4.7815751e-39 307 249
-0.01460176 0.69400001 -0.01095132 4.7808562e-39 308 249
-0.013384946 0.69400001 -0.01095132 4.6886606e-39 309 249
-0.012168133 0.69400001 -0.01095132 4.5957447e-39 310 249
-0.01095132 0.69400001 -0.01095132 4.5957447e-39 311 249
-0.0097345067 0.69400001 -0.01095132 4.4117136e-39 312 249
-0.0085176928 0.69400001 -0.01095132 4.3195179e-39 313 249
-0.0073008798 0.69400001 -0.01095132 4.3195179e-39 314 249
-0.0060840664 0.69400001 -0.01095132 4.1354868e-39 315 249
-0.0048672534 0.69400001 -0.01095132 4.0429352e-39 316 249
-0.0036451798 0.69300002 -0.010935539 4.0429352e-39 317 249
-0.00243012 0.69300002 -0.010935539 3.6759492e-39 318 249
-0.00121506 0.69300002 -0.010935539 3.7681462e-39 319 249
0 0.69400001 -0.01095132 3.4933572e-39 320 249
0.0012168133 0.69400001 -0.01095132 3.4933572e-39 321 249
0.0024336267 0.69400001 -0.01095132 3.2182122e-39 322 249
0.0036504399 0.69400001 -0.01095132 3.2182122e-39 323 249
0.0048672534 0.69400001 -0.01095132 3.0341797e-39 324 249
0.0060840664 0.69400001 -0.01095132 3.0341797e-39 325 249
0.00733244 0.69700003 -0.01099866 3.0341797e-39 326 249
0.0085667865 0.69800001 -0.01101444 3.0341797e-39 327 249
0.0097906133 0.69800001 -0.01101444 2.9427002e-39 328 249
0.011045999 0.69999999 -0.011045999 2.9427002e-39 329 249
0.012273333 0.69999999 -0.011045999 2.7593879e-39 330 249
0.013500666 0.69999999 -0.011045999 2.7593879e-39 331 249
0.014749039 0.70099998 -0.011061779 2.6668363e-39 332 249
0.015978126 0.70099998 -0.011061779 2.759032e-39 333 249
0.017256306 0.70300001 -0.01109334 2.484966e-39 334 249
0.018515198 0.704 -0.011109119 2.5771616e-39 335 249
0.019749546 0.704 -0.011109119 2.8526667e-39 336 249
0.020983893 0.704 -0.011109119 3.314005e-39 337 249
0.022281358 0.70599997 -0.011140679 3.8696829e-39 338 249
0.023452586 0.704 -0.011109119 5.0682261e-39 339 249
0.024686933 0.704 -0.011109119 6.8112858e-39 340 249
0.02592128 0.704 -0.011109119 1.2066437e-38 341 249
-0.047571439 0.71399999 -0.012518799 1.7233723e-38 282 250
-0.046254687 0.713 -0.012501267 1.225552e-38 283 250
-0.044878319 0.71100003 -0.0124662 7.0853714e-39 284 250
-0.043631699 0.71100003 -0.0124662 5.7946326e-39 285 250
-0.042325463 0.70999998 -0.012448666 5.612042e-39 286 250
-0.041080594 0.70999998 -0.012448666 5.3350964e-39 287 250
-0.039723519 0.708 -0.0124136 4.8737679e-39 288 250
-0.038373452 0.70599997 -0.012378532 4.4131485e-39 289 250
-0.037030395 0.704 -0.012343466 4.2291202e-39 290 250
-0.035796054 0.704 -0.012343466 4.2291202e-39 291 250
-0.034365334 0.69999999 -0.012273333 4.3205997e-39 292 250
-0.033137999 0.69999999 -0.012273333 4.2284041e-39 293 250
-0.031819493 0.69800001 -0.012238266 4.5031931e-39 294 250
-0.030595668 0.69800001 -0.012238266 4.5953888e-39 295 250
-0.029371841 0.69800001 -0.012238266 4.3209627e-39 296 250
-0.028107686 0.69700003 -0.012220734 4.4135184e-39 297 250
-0.026885614 0.69700003 -0.012220734 4.3209655e-39 298 250
-0.025663542 0.69700003 -0.012220734 4.2287698e-39 299 250
-0.024441468 0.69700003 -0.012220734 4.4124422e-39 300 250
-0.023219392 0.69700003 -0.012220734 4.7812248e-39 301 250
-0.02199732 0.69700003 -0.012220734 4.6901053e-39 302 250
-0.020775247 0.69700003 -0.012220734 4.8741364e-39 303 250
-0.019525118 0.69599998 -0.0122032 4.8737707e-39 304 250
-0.0182522 0.69400001 -0.012168133 4.8737707e-39 305 250
-0.017035386 0.69400001 -0.012168133 4.9648873e-39 306 250
-0.015818574 0.69400001 -0.012168133 4.9648873e-39 307 250
-0.01460176 0.69400001 -0.012168133 4.8719728e-39 308 250
-0.013384946 0.69400001 -0.012168133 4.7797758e-39 309 250
-0.012168133 0.69400001 -0.012168133 4.5957447e-39 310 250
-0.01095132 0.69400001 -0.012168133 4.5031903e-39 311 250
-0.0097345067 0.69400001 -0.012168133 4.1362029e-39 312 250
-0.0085176928 0.69400001 -0.012168133 4.2283985e-39 313 250
-0.0073008798 0.69400001 -0.012168133 4.1362057e-39 314 250
-0.0060840664 0.69400001 -0.012168133 4.04401e-39 315 250
-0.0048672534 0.69400001 -0.012168133 3.9514585e-39 316 250
-0.0036504399 0.69400001 -0.012168133 3.767426e-39 317 250
-0.0024336267 0.69400001 -0.012168133 3.4926369e-39 318 250
-0.0012168133 0.69400001 -0.012168133 3.4926369e-39 319 250
0 0.69400001 -0.012168133 3.3096862e-39 320 250
0.0012168133 0.69400001 -0.012168133 3.3096862e-39 321 250
0.0024336267 0.69400001 -0.012168133 2.942703e-39 322 250
0.0036504399 0.69400001 -0.012168133 2.942703e-39 323 250
0.0048672534 0.69400001 -0.012168133 2.8501514e-39 324 250
0.0060840664 0.69400001 -0.012168133 2.7579558e-39 325 250
0.00733244 0.69700003 -0.012220734 2.8494297e-39 326 250
0.0085667865 0.69800001 -0.012238266 2.9419841e-39 327 250
0.0097906133 0.69800001 -0.012238266 2.7593879e-39 328 250
0.011045999 0.69999999 -0.012273333 2.8515849e-39 329 250
0.012273333 0.69999999 -0.012273333 2.7593879e-39 330 250
0.013519952 0.70099998 -0.012290866 2.7593879e-39 331 250
0.014749039 0.70099998 -0.012290866 2.7601082e-39 332 250
0.016023712 0.70300001 -0.012325933 2.7601082e-39 333 250
0.017280852 0.704 -0.012343466 2.57644e-39 334 250
0.018515198 0.704 -0.012343466 2.6686356e-39 335 250
0.019749546 0.704 -0.012343466 3.036695e-39 336 250
0.020983893 0.704 -0.012343466 3.7742601e-39 337 250
0.022281358 0.70599997 -0.012378532 4.6061661e-39 338 250
0.023452586 0.704 -0.012343466 5.4362855e-39 339 250
0.024686933 0.704 -0.012343466 7.5463355e-39 340 250
0.027155625 0.704 -0.012343466 1.5572392e-38 342 250
-0.047371563 0.71100003 -0.01371282 1.7418115e-38 282 251
-0.046124939 0.71100003 -0.01371282 1.2808333e-38 283 251
-0.044878319 0.71100003 -0.01371282 8.1909959e-39 284 251
-0.043570329 0.70999998 -0.013693533 6.6236702e-39 285 251
-0.042325463 0.70999998 -0.013693533 5.6127581e-39 286 251
-0.041080594 0.70999998 -0.013693533 5.5205624e-39 287 251
-0.039723519 0.708 -0.013654959 4.7815723e-39 288 251
-0.038373452 0.70599997 -0.013616386 4.597181e-39 289 251
-0.037135597 0.70599997 -0.013616386 4.2291202e-39 290 251
-0.035796054 0.704 -0.013577812 4.045089e-39 291 251
-0.034414422 0.70099998 -0.013519952 4.2284041e-39 292 251
-0.033137999 0.69999999 -0.013500666 4.2284041e-39 293 251
-0.031910665 0.69999999 -0.013500666 4.4117164e-39 294 251
-0.030595668 0.69800001 -0.013462093 4.4117164e-39 295 251
-0.029371841 0.69800001 -0.013462093 4.3205997e-39 296 251
-0.028107686 0.69700003 -0.013442807 4.3205997e-39 297 251
-0.026885614 0.69700003 -0.013442807 4.2280482e-39 298 251
-0.025663542 0.69700003 -0.013442807 4.2280482e-39 299 251
-0.024441468 0.69700003 -0.013442807 4.3202438e-39 300 251
-0.023219392 0.69700003 -0.013442807 4.6890263e-39 301 251
-0.02199732 0.69700003 -0.013442807 4.7815751e-39 302 251
-0.020775247 0.69700003 -0.013442807 4.8737707e-39 303 251
-0.019525118 0.69599998 -0.013423519 5.0574389e-39 304 251
-0.0182522 0.69400001 -0.013384946 5.0574389e-39 305 251
-0.017035386 0.69400001 -0.013384946 5.05672e-39 306 251
-0.015818574 0.69400001 -0.013384946 4.9645244e-39 307 251
-0.01460176 0.69400001 -0.013384946 4.87197e-39 308 251
-0.013384946 0.69400001 -0.013384946 4.5957419e-39 309 251
-0.012168133 0.69400001 -0.013384946 4.6868585e-39 310 251
-0.01095132 0.69400001 -0.013384946 4.5946629e-39 311 251
-0.0097345067 0.69400001 -0.013384946 3.9528934e-39 312 251
-0.0085176928 0.69400001 -0.013384946 3.9528934e-39 313 251
-0.0073008798 0.69400001 -0.013384946 3.7688651e-39 314 251
-0.0060840664 0.69400001 -0.013384946 3.584834e-39 315 251
-0.0048672534 0.69400001 -0.013384946 3.7681462e-39 316 251
-0.0036504399 0.69400001 -0.013384946 3.6759492e-39 317 251
-0.0024336267 0.69400001 -0.013384946 3.4926341e-39 318 251
-0.0012168133 0.69400001 -0.013384946 3.4926341e-39 319 251
0 0.69400001 -0.013384946 3.2178451e-39 320 251
0.0012168133 0.69400001 -0.013384946 3.3100421e-39 321 251
0.0024336267 0.69400001 -0.013384946 2.9427002e-39 322 251
0.0036609597 0.69599998 -0.013423519 2.8505045e-39 323 251
0.0048812795 0.69599998 -0.013423519 2.757953e-39 324 251
0.0061015999 0.69599998 -0.013423519 2.757953e-39 325 251
0.0073429602 0.69800001 -0.013462093 2.8501486e-39 326 251
0.0085667865 0.69800001 -0.013462093 2.8501486e-39 327 251
0.0098186666 0.69999999 -0.013500666 2.6679111e-39 328 251
0.011045999 0.69999999 -0.013500666 2.6679111e-39 329 251
0.012273333 0.69999999 -0.013500666 2.8515849e-39 330 251
0.013519952 0.70099998 -0.013519952 2.7593879e-39 331 251
0.014749039 0.70099998 -0.013519952 2.7593879e-39 332 251
0.016023712 0.70300001 -0.013558527 2.8515849e-39 333 251
0.017280852 0.704 -0.013577812 2.7597522e-39 334 251
0.018515198 0.704 -0.013577812 2.8519479e-39 335 251
0.019749546 0.704 -0.013577812 3.4054748e-39 336 251
0.021043506 0.70599997 -0.013616386 4.1430398e-39 337 251
0.022281358 0.70599997 -0.013616386 5.4337618e-39 338 251
0.023519212 0.70599997 -0.013616386 5.7103487e-39 339 251
0.024757065 0.70599997 -0.013616386 8.1902672e-39 340 251
-0.047371563 0.71100003 -0.014959441 1.7418468e-38 282 252
-0.046124939 0.71100003 -0.014959441 1.3454056e-38 283 252
-0.044878319 0.71100003 -0.014959441 9.2976966e-39 284 252
-0.043570329 0.70999998 -0.014938398 6.9928072e-39 285 252
-0.042325463 0.70999998 -0.014938398 6.3488784e-39 286 252
-0.041080594 0.70999998 -0.014938398 5.703509e-39 287 252
-0.039723519 0.708 -0.01489632 5.2414644e-39 288 252
-0.038373452 0.70599997 -0.014854239 4.8723232e-39 289 252
-0.037135597 0.70599997 -0.014854239 4.5964636e-39 290 252
-0.035796054 0.704 -0.014812159 4.5039092e-39 291 252
-0.034414422 0.70099998 -0.014749039 4.4117136e-39 292 252
-0.03318534 0.70099998 -0.014749039 4.4117136e-39 293 252
-0.031910665 0.69999999 -0.014727999 4.5031903e-39 294 252
-0.030595668 0.69800001 -0.01468592 4.5031903e-39 295 252
-0.029371841 0.69800001 -0.01468592 4.4117136e-39 296 252
-0.028148014 0.69800001 -0.01468592 4.3195179e-39 297 252
-0.026885614 0.69700003 -0.01466488 4.1362085e-39 298 252
-0.025663542 0.69700003 -0.01466488 4.0436541e-39 299 252
-0.024441468 0.69700003 -0.01466488 4.0447359e-39 300 252
-0.023219392 0.69700003 -0.01466488 4.228767e-39 301 252
-0.02199732 0.69700003 -0.01466488 4.4135156e-39 302 252
-0.020775247 0.69700003 -0.01466488 4.5979069e-39 303 252
-0.019525118 0.69599998 -0.014643839 4.6890235e-39 304 252
-0.018304799 0.69599998 -0.014643839 4.7815779e-39 305 252
-0.017084479 0.69599998 -0.014643839 4.6893794e-39 306 252
-0.015864158 0.69599998 -0.014643839 4.5971838e-39 307 252
-0.01460176 0.69400001 -0.01460176 4.779773e-39 308 252
-0.013384946 0.69400001 -0.01460176 4.5035463e-39 309 252
-0.012168133 0.69400001 -0.01460176 4.4109947e-39 310 252
-0.01095132 0.69400001 -0.01460176 4.3187991e-39 311 252
-0.0097345067 0.69400001 -0.01460176 4.1354868e-39 312 252
-0.0085176928 0.69400001 -0.01460176 4.1354868e-39 313 252
-0.0073008798 0.69400001 -0.01460176 3.7681434e-39 314 252
-0.0060840664 0.69400001 -0.01460176 3.6759464e-39 315 252
-0.0048672534 0.69400001 -0.01460176 3.4004385e-39 316 252
-0.0036504399 0.69400001 -0.01460176 3.4004385e-39 317 252
-0.0024336267 0.69400001 -0.01460176 3.2171262e-39 318 252
-0.0012168133 0.69400001 -0.01460176 3.4011574e-39 319 252
0 0.69400001 -0.01460176 3.2171262e-39 320 252
0.0012168133 0.69400001 -0.01460176 3.4011574e-39 321 252
0.0024336267 0.69400001 -0.01460176 2.9419813e-39 322 252
0.0036609597 0.69599998 -0.014643839 2.9419813e-39 323 252
0.0048882933 0.69700003 -0.01466488 2.7583089e-39 324 252
0.0061103669 0.69700003 -0.01466488 2.8505045e-39 325 252
0.0073429602 0.69800001 -0.01468592 2.8505045e-39 326 252
0.0085667865 0.69800001 -0.01468592 2.8505045e-39 327 252
0.0098186666 0.69999999 -0.014727999 2.8505045e-39 328 252
0.011045999 0.69999999 -0.014727999 2.9427002e-39 329 252
0.012290866 0.70099998 -0.014749039 2.7593851e-39 330 252
0.013519952 0.70099998 -0.014749039 2.7593851e-39 331 252
0.014749039 0.70099998 -0.014749039 2.7601082e-39 332 252
0.016023712 0.70300001 -0.014791119 2.7601082e-39 333 252
0.017280852 0.704 -0.014812159 3.2196444e-39 334 252
0.018515198 0.704 -0.014812159 3.4958711e-39 335 252
0.019805651 0.70599997 -0.014854239 3.6831336e-39 336 252
0.021043506 0.70599997 -0.014854239 4.6054501e-39 337 252
0.022281358 0.70599997 -0.014854239 5.1607692e-39 338 252
0.023519212 0.70599997 -0.014854239 5.4373547e-39 339 252
0.024757065 0.70599997 -0.014854239 9.4788438e-39 340 252
-0.046124939 0.71100003 -0.01620606 1.4191628e-38 283 253
-0.044878319 0.71100003 -0.01620606 1.040477e-38 284 253
-0.043570329 0.70999998 -0.016183265 7.7310968e-39 285 253
-0.042325463 0.70999998 -0.016183265 7.0860959e-39 286 253
-0.041080594 0.70999998 -0.016183265 6.4407265e-39 287 253
-0.039723519 0.708 -0.01613768 5.2425532e-39 288 253
-0.038427804 0.70700002 -0.016114887 4.8737707e-39 289 253
-0.037135597 0.70599997 -0.016092092 4.4127926e-39 290 253
-0.035796054 0.704 -0.016046507 4.3205969e-39 291 253
-0.034414422 0.70099998 -0.015978126 4.4117136e-39 292 253
-0.03318534 0.70099998 -0.015978126 4.3195179e-39 293 253
-0.031910665 0.69999999 -0.015955333 4.5035463e-39 294 253
-0.030595668 0.69800001 -0.015909746 4.5035463e-39 295 253
-0.029371841 0.69800001 -0.015909746 4.4120695e-39 296 253
-0.028148014 0.69800001 -0.015909746 4.3198739e-39 297 253
-0.026885614 0.69700003 -0.015886955 4.1354868e-39 298 253
-0.025663542 0.69700003 -0.015886955 4.1354868e-39 299 253
-0.024441468 0.69700003 -0.015886955 4.319155e-39 300 253
-0.023219392 0.69700003 -0.015886955 4.4113506e-39 301 253
-0.02199732 0.69700003 -0.015886955 4.4120695e-39 302 253
-0.020775247 0.69700003 -0.015886955 4.5042651e-39 303 253
-0.019553173 0.69700003 -0.015886955 4.7790541e-39 304 253
-0.018331099 0.69700003 -0.015886955 4.8712498e-39 305 253
-0.017109027 0.69700003 -0.015886955 4.7790541e-39 306 253
-0.015886955 0.69700003 -0.015886955 4.7790541e-39 307 253
-0.014643839 0.69599998 -0.015864158 4.6868585e-39 308 253
-0.013423519 0.69599998 -0.015864158 4.6868585e-39 309 253
-0.012168133 0.69400001 -0.015818574 4.1358399e-39 310 253
-0.01095132 0.69400001 -0.015818574 4.3198711e-39 311 253
-0.0097625591 0.69599998 -0.015864158 4.0432912e-39 312 253
-0.0085422397 0.69599998 -0.015864158 4.0432912e-39 313 253
-0.0073219193 0.69599998 -0.015864158 3.6755933e-39 314 253
-0.0061015999 0.69599998 -0.015864158 3.5833976e-39 315 253
-0.0048812795 0.69599998 -0.015864158 3.4004413e-39 316 253
-0.0036609597 0.69599998 -0.015864158 3.4004413e-39 317 253
-0.0024406398 0.69599998 -0.015864158 3.2171234e-39 318 253
-0.0012203199 0.69599998 -0.015864158 3.2171234e-39 319 253
0 0.69599998 -0.015864158 3.2178395e-39 320 253
0.0012203199 0.69599998 -0.015864158 3.1256439e-39 321 253
0.0024406398 0.69599998 -0.015864158 3.0330951e-39 322 253
0.00366622 0.69700003 -0.015886955 3.0330951e-39 323 253
0.0048953067 0.69800001 -0.015909746 2.757953e-39 324 253
0.0061103669 0.69700003 -0.015886955 2.757953e-39 325 253
0.00733244 0.69700003 -0.015886955 2.8501486e-39 326 253
0.0085913334 0.69999999 -0.015955333 2.8501486e-39 327 253
0.0098186666 0.69999999 -0.015955333 2.8505045e-39 328 253
0.011045999 0.69999999 -0.015955333 2.8505045e-39 329 253
0.012290866 0.70099998 -0.015978126 2.7593879e-39 330 253
0.013519952 0.70099998 -0.015978126 2.7593879e-39 331 253
0.014749039 0.70099998 -0.015978126 2.8515849e-39 332 253
0.016046507 0.704 -0.016046507 3.1278117e-39 333 253
0.017280852 0.704 -0.016046507 3.2203604e-39 334 253
0.018515198 0.704 -0.016046507 3.7735342e-39 335 253
0.019805651 0.70599997 -0.016092092 4.2359417e-39 336 253
0.021043506 0.70599997 -0.016092092 5.0657024e-39 337 253
0.022281358 0.70599997 -0.016092092 6.2624281e-39 338 253
0.023519212 0.70599997 -0.016092092 6.8156018e-39 339 253
0.024757065 0.70599997 -0.016092092 1.0588783e-38 340 253
0.025994917 0.70599997 -0.016092092 1.7227227e-38 341 253
-0.045067675 0.71399999 -0.017526319 1.1695509e-38 284 254
-0.043570329 0.70999998 -0.017428132 8.9296399e-39 285 254
-0.042325463 0.70999998 -0.017428132 8.0995219e-39 286 254
-0.041080594 0.70999998 -0.017428132 6.440002e-39 287 254
-0.039723519 0.708 -0.017379038 5.6116861e-39 288 254
-0.038427804 0.70700002 -0.017354494 5.058871e-39 289 254
-0.037135597 0.70599997 -0.017329946 4.872326e-39 290 254
-0.035796054 0.704 -0.017280852 4.7801289e-39 291 254
-0.034512613 0.70300001 -0.017256306 4.5035463e-39 292 254
-0.03318534 0.70099998 -0.017207211 4.4113506e-39 293 254
-0.031956252 0.70099998 -0.017207211 4.2283985e-39 294 254
-0.030683333 0.69999999 -0.017182667 4.2283985e-39 295 254
-0.029371841 0.69800001 -0.017133573 4.2284013e-39 296 254
-0.028148014 0.69800001 -0.017133573 4.1362057e-39 297 254
-0.026924185 0.69800001 -0.017133573 4.1354868e-39 298 254
-0.025663542 0.69700003 -0.017109027 4.1354868e-39 299 254
-0.024441468 0.69700003 -0.017109027 4.1354896e-39 300 254
-0.023219392 0.69700003 -0.017109027 4.0429352e-39 301 254
-0.02202888 0.69800001 -0.017133573 4.1354896e-39 302 254
-0.020775247 0.69700003 -0.017109027 4.3195207e-39 303 254
-0.019553173 0.69700003 -0.017109027 4.5943098e-39 304 254
-0.018331099 0.69700003 -0.017109027 4.5943098e-39 305 254
-0.017109027 0.69700003 -0.017109027 4.4110003e-39 306 254
-0.015886955 0.69700003 -0.017109027 4.4110003e-39 307 254
-0.014643839 0.69599998 -0.017084479 4.1354896e-39 308 254
-0.013423519 0.69599998 -0.017084479 4.3195207e-39 309 254
-0.012168133 0.69400001 -0.017035386 4.1354868e-39 310 254
-0.01095132 0.69400001 -0.017035386 4.0432912e-39 311 254
-0.0097625591 0.69599998 -0.017084479 4.0429352e-39 312 254
-0.0085422397 0.69599998 -0.017084479 4.0429352e-39 313 254
-0.0073219193 0.69599998 -0.017084479 3.6752331e-39 314 254
-0.0061015999 0.69599998 -0.017084479 3.5826788e-39 315 254
-0.0048812795 0.69599998 -0.017084479 3.4004413e-39 316 254
-0.0036609597 0.69599998 -0.017084479 3.4004413e-39 317 254
-0.0024406398 0.69599998 -0.017084479 2.9423344e-39 318 254
-0.0012203199 0.69599998 -0.017084479 2.9423344e-39 319 254
0 0.69599998 -0.017084479 2.9423344e-39 320 254
0.0012203199 0.69599998 -0.017084479 2.8501388e-39 321 254
0.0024406398 0.69599998 -0.017084479 3.0330979e-39 322 254
0.00366622 0.69700003 -0.017109027 3.0330979e-39 323 254
0.0048953067 0.69800001 -0.017133573 2.757953e-39 324 254
0.0061103669 0.69700003 -0.017109027 2.8501486e-39 325 254
0.00733244 0.69700003 -0.017109027 2.8505045e-39 326 254
0.0085913334 0.69999999 -0.017182667 2.8505045e-39 327 254
0.0098326923 0.70099998 -0.017207211 2.9427002e-39 328 254
0.011061779 0.70099998 -0.017207211 2.9427002e-39 329 254
0.012290866 0.70099998 -0.017207211 3.0348944e-39 330 254
0.013558527 0.70300001 -0.017256306 3.0348944e-39 331 254
0.014791119 0.70300001 -0.017256306 3.1281676e-39 332 254
0.016046507 0.704 -0.017280852 3.3125589e-39 333 254
0.017280852 0.704 -0.017280852 3.4980235e-39 334 254
0.018567799 0.70599997 -0.017329946 4.0511973e-39 335 254
0.019805651 0.70599997 -0.017329946 4.6969184e-39 336 254
0.021073313 0.70700002 -0.017354494 5.6188761e-39 337 254
0.022312919 0.70700002 -0.017354494 6.6294057e-39 338 254
0.023552528 0.70700002 -0.017354494 8.842461e-39 339 254
0.024792133 0.70700002 -0.017354494 1.2800036e-38 340 254
0.02603174 0.70700002 -0.017354494 1.7409818e-38 341 254
-0.045193922 0.71600002 -0.0188308 1.2434512e-38 284 255
-0.043631699 0.71100003 -0.0186993 9.2998616e-39 285 255
-0.042325463 0.70999998 -0.018672999 8.4672269e-39 286 255
-0.041080594 0.70999998 -0.018672999 7.361238e-39 287 255
-0.039723519 0.708 -0.0186204 5.889352e-39 288 255
-0.038427804 0.70700002 -0.018594101 5.2439826e-39 289 255
-0.037135597 0.70599997 -0.018567799 5.0567172e-39 290 255
-0.035796054 0.704 -0.018515198 4.7801289e-39 291 255
-0.034561705 0.704 -0.018515198 4.5042651e-39 292 255
-0.033280019 0.70300001 -0.018488899 4.3198739e-39 293 255
-0.031956252 0.70099998 -0.018436298 4.3198739e-39 294 255
-0.030683333 0.69999999 -0.018409999 4.4120695e-39 295 255
-0.029455997 0.69999999 -0.018409999 4.2284013e-39 296 255
-0.028148014 0.69800001 -0.0183574 4.1362057e-39 297 255
-0.026924185 0.69800001 -0.0183574 4.1354868e-39 298 255
-0.025663542 0.69700003 -0.018331099 4.1354868e-39 299 255
-0.024441468 0.69700003 -0.018331099 4.0432912e-39 300 255
-0.023219392 0.69700003 -0.018331099 4.0432912e-39 301 255
-0.02202888 0.69800001 -0.0183574 4.2266034e-39 302 255
-0.020775247 0.69700003 -0.018331099 4.2266034e-39 303 255
-0.019553173 0.69700003 -0.018331099 4.3184361e-39 304 255
-0.018331099 0.69700003 -0.018331099 4.5024673e-39 305 255
-0.017109027 0.69700003 -0.018331099 4.3184361e-39 306 255
-0.015886955 0.69700003 -0.018331099 4.3184361e-39 307 255
-0.01466488 0.69700003 -0.018331099 4.2266006e-39 308 255
-0.013423519 0.69599998 -0.018304799 4.319155e-39 309 255
-0.0122032 0.69599998 -0.018304799 4.0432884e-39 310 255
-0.010982879 0.69599998 -0.018304799 4.0432884e-39 311 255
-0.0097625591 0.69599998 -0.018304799 3.8585398e-39 312 255
-0.0085545136 0.69700003 -0.018331099 3.8585398e-39 313 255
-0.00733244 0.69700003 -0.018331099 3.4000854e-39 314 255
-0.0061015999 0.69599998 -0.018304799 3.3078897e-39 315 255
-0.0048812795 0.69599998 -0.018304799 3.3078869e-39 316 255
-0.00366622 0.69700003 -0.018331099 3.3078869e-39 317 255
-0.0024441467 0.69700003 -0.018331099 3.0330951e-39 318 255
-0.0012220733 0.69700003 -0.018331099 3.1256495e-39 319 255
0 0.69700003 -0.018331099 3.0330951e-39 320 255
0.0012220733 0.69700003 -0.018331099 3.0330951e-39 321 255
0.0024441467 0.69700003 -0.018331099 2.8497857e-39 322 255
0.0036714801 0.69800001 -0.0183574 2.8497857e-39 323 255
0.0048953067 0.69800001 -0.0183574 2.8501486e-39 324 255
0.006119133 0.69800001 -0.0183574 2.8501486e-39 325 255
0.0073429602 0.69800001 -0.0183574 2.759032e-39 326 255
0.0085913334 0.69999999 -0.018409999 2.759032e-39 327 255
0.0098326923 0.70099998 -0.018436298 2.8515849e-39 328 255
0.011061779 0.70099998 -0.018436298 2.8515849e-39 329 255
0.012290866 0.70099998 -0.018436298 3.0348944e-39 330 255
0.013558527 0.70300001 -0.018488899 3.1274487e-39 331 255
0.014812159 0.704 -0.018515198 3.2203632e-39 332 255
0.016046507 0.704 -0.018515198 3.6809827e-39 333 255
0.017329946 0.70599997 -0.018567799 3.774616e-39 334 255
0.018567799 0.70599997 -0.018567799 4.3277898e-39 335 255
0.019833706 0.70700002 -0.018594101 4.9735095e-39 336 255
0.021103119 0.708 -0.0186204 5.8951057e-39 337 255
0.022344479 0.708 -0.0186204 6.9960302e-39 338 255
0.023585839 0.708 -0.0186204 1.0960442e-38 339 255
0.024897331 0.70999998 -0.018672999 1.4184045e-38 340 255
0.026142199 0.70999998 -0.018672999 1.6949914e-38 341 255
-0.042325463 0.70999998 -0.019917866 8.4686646e-39 286 256
-0.041080594 0.70999998 -0.019917866 7.7307408e-39 287 256
-0.039723519 0.708 -0.01986176 6.4425229e-39 288 256
-0.038427804 0.70700002 -0.019833706 5.6127609e-39 289 256
-0.037135597 0.70599997 -0.019805651 5.4254955e-39 290 256
-0.035796054 0.704 -0.019749546 4.9645188e-39 291 256
-0.034561705 0.704 -0.019749546 4.4131457e-39 292 256
-0.033280019 0.70300001 -0.019721493 4.3209501e-39 293 256
-0.031956252 0.70099998 -0.019665385 4.0450862e-39 294 256
-0.030683333 0.69999999 -0.019637333 4.0450862e-39 295 256
-0.029455997 0.69999999 -0.019637333 4.0450862e-39 296 256
-0.028148014 0.69800001 -0.019581227 4.0450862e-39 297 256
-0.026924185 0.69800001 -0.019581227 4.3195179e-39 298 256
-0.025700359 0.69800001 -0.019581227 4.1354868e-39 299 256
-0.024441468 0.69700003 -0.019553173 4.135484e-39 300 256
-0.023219392 0.69700003 -0.019553173 4.0432884e-39 301 256
-0.02202888 0.69800001 -0.019581227 4.0432884e-39 302 256
-0.020805053 0.69800001 -0.019581227 4.0432884e-39 303 256
-0.019553173 0.69700003 -0.019553173 4.1344064e-39 304 256
-0.018331099 0.69700003 -0.019553173 4.2266034e-39 305 256
-0.017109027 0.69700003 -0.019553173 4.1344036e-39 306 256
-0.015886955 0.69700003 -0.019553173 4.2266006e-39 307 256
-0.01466488 0.69700003 -0.019553173 4.2266006e-39 308 256
-0.013423519 0.69599998 -0.019525118 4.2266006e-39 309 256
-0.0122032 0.69599998 -0.019525118 4.2266006e-39 310 256
-0.010982879 0.69599998 -0.019525118 4.1344036e-39 311 256
-0.0097765867 0.69700003 -0.019553173 3.6752275e-39 312 256
-0.0085545136 0.69700003 -0.019553173 3.5830319e-39 313 256
-0.00733244 0.69700003 -0.019553173 3.4915579e-39 314 256
-0.0061103669 0.69700003 -0.019553173 3.4915579e-39 315 256
-0.0048882933 0.69700003 -0.019553173 3.4004413e-39 316 256
-0.0036714801 0.69800001 -0.019581227 3.3078869e-39 317 256
-0.0024476533 0.69800001 -0.019581227 3.1245747e-39 318 256
-0.0012238267 0.69800001 -0.019581227 3.2167703e-39 319 256
0 0.69800001 -0.019581227 2.8497829e-39 320 256
0.0012220733 0.69700003 -0.019553173 2.9419785e-39 321 256
0.0024441467 0.69700003 -0.019553173 2.8505017e-39 322 256
0.0036714801 0.69800001 -0.019581227 2.9426973e-39 323 256
0.0048953067 0.69800001 -0.019581227 2.759032e-39 324 256
0.006119133 0.69800001 -0.019581227 2.759032e-39 325 256
0.0073639993 0.69999999 -0.019637333 2.8515877e-39 326 256
0.0085913334 0.69999999 -0.019637333 2.8515877e-39 327 256
0.0098326923 0.70099998 -0.019665385 2.8515821e-39 328 256
0.011061779 0.70099998 -0.019665385 2.8515821e-39 329 256
0.012325933 0.70300001 -0.019721493 3.310761e-39 330 256
0.013577812 0.704 -0.019749546 3.4951523e-39 331 256
0.014812159 0.704 -0.019749546 3.4047545e-39 332 256
0.016046507 0.704 -0.019749546 3.773537e-39 333 256
0.017329946 0.70599997 -0.019805651 3.9586471e-39 334 256
0.018594101 0.70700002 -0.019833706 4.6040166e-39 335 256
0.01986176 0.708 -0.01986176 5.341569e-39 336 256
0.021162732 0.70999998 -0.019917866 6.079134e-39 337 256
0.022407599 0.70999998 -0.019917866 7.5466831e-39 338 256
0.023652466 0.70999998 -0.019917866 1.2801834e-38 339 256
0.024932399 0.71100003 -0.01994592 1.5383312e-38 340 256
-0.041080594 0.70999998 -0.021162732 8.1917162e-39 287 257
-0.039723519 0.708 -0.021103119 6.9034969e-39 288 257
-0.038427804 0.70700002 -0.021073313 5.7971507e-39 289 257
-0.037135597 0.70599997 -0.021043506 5.3343761e-39 290 257
-0.035897743 0.70599997 -0.021043506 5.0577892e-39 291 257
-0.034561705 0.704 -0.020983893 4.6890109e-39 292 257
-0.03332736 0.704 -0.020983893 4.5968139e-39 293 257
-0.032047424 0.70300001 -0.020954086 4.2287544e-39 294 257
-0.030727165 0.70099998 -0.020894472 4.2287544e-39 295 257
-0.029455997 0.69999999 -0.020864666 4.2287544e-39 296 257
-0.028228667 0.69999999 -0.020864666 4.2287544e-39 297 257
-0.026924185 0.69800001 -0.020805053 4.2287544e-39 298 257
-0.025700359 0.69800001 -0.020805053 4.1365588e-39 299 257
-0.024476532 0.69800001 -0.020805053 4.4113478e-39 300 257
-0.023252707 0.69800001 -0.020805053 4.4113478e-39 301 257
-0.02202888 0.69800001 -0.020805053 4.3191522e-39 302 257
-0.020805053 0.69800001 -0.020805053 4.3191522e-39 303 257
-0.019581227 0.69800001 -0.020805053 4.3184333e-39 304 257
-0.0183574 0.69800001 -0.020805053 4.3184333e-39 305 257
-0.017133573 0.69800001 -0.020805053 4.5024645e-39 306 257
-0.015909746 0.69800001 -0.020805053 4.5024645e-39 307 257
-0.01466488 0.69700003 -0.020775247 4.3184333e-39 308 257
-0.013442807 0.69700003 -0.020775247 4.3184333e-39 309 257
-0.0122032 0.69599998 -0.020745439 4.2258804e-39 310 257
-0.010982879 0.69599998 -0.020745439 4.2258804e-39 311 257
-0.0097765867 0.69700003 -0.020775247 3.7674232e-39 312 257
-0.0085545136 0.69700003 -0.020775247 3.6752275e-39 313 257
-0.00733244 0.69700003 -0.020775247 3.5837508e-39 314 257
-0.0061103669 0.69700003 -0.020775247 3.5837508e-39 315 257
-0.0048882933 0.69700003 -0.020775247 3.4004385e-39 316 257
-0.0036714801 0.69800001 -0.020805053 3.3082429e-39 317 257
-0.0024476533 0.69800001 -0.020805053 3.2171262e-39 318 257
-0.0012238267 0.69800001 -0.020805053 3.4011574e-39 319 257
0 0.69800001 -0.020805053 2.9423344e-39 320 257
0.0012238267 0.69800001 -0.020805053 3.03453e-39 321 257
0.0024476533 0.69800001 -0.020805053 2.7593851e-39 322 257
0.0036714801 0.69800001 -0.020805053 2.8515821e-39 323 257
0.0049093333 0.69999999 -0.020864666 3.0348972e-39 324 257
0.0061366665 0.69999999 -0.020864666 3.0348972e-39 325 257
0.0073639993 0.69999999 -0.020864666 3.0348972e-39 326 257
0.0086036054 0.70099998 -0.020894472 3.1270928e-39 327 257
0.0098607466 0.70300001 -0.020954086 3.1274487e-39 328 257
0.01109334 0.70300001 -0.020954086 3.2196444e-39 329 257
0.012343466 0.704 -0.020983893 3.3118372e-39 330 257
0.013577812 0.704 -0.020983893 3.5884227e-39 331 257
0.014812159 0.704 -0.020983893 3.6802638e-39 332 257
0.016092092 0.70599997 -0.021043506 3.8650138e-39 333 257
0.017354494 0.70700002 -0.021073313 4.2352354e-39 334 257
0.018594101 0.70700002 -0.021073313 4.7884092e-39 335 257
0.019917866 0.70999998 -0.021162732 5.6181503e-39 336 257
0.021162732 0.70999998 -0.021162732 6.1716842e-39 337 257
0.022407599 0.70999998 -0.021162732 8.8349024e-39 338 257
0.023652466 0.70999998 -0.021162732 1.4643226e-38 339 257
-0.041138459 0.71100003 -0.022439159 8.3768193e-39 287 258
-0.039835732 0.70999998 -0.022407599 7.3630345e-39 288 258
-0.038482159 0.708 -0.022344479 6.3488812e-39 289 258
-0.037188202 0.70700002 -0.022312919 5.6127609e-39 290 258
-0.035897743 0.70599997 -0.022281358 5.0595871e-39 291 258
-0.034659892 0.70599997 -0.022281358 4.8748399e-39 292 258
-0.03332736 0.704 -0.022218239 4.5064175e-39 293 258
-0.032093015 0.704 -0.022218239 4.2305537e-39 294 258
-0.030814834 0.70300001 -0.02218668 4.1383567e-39 295 258
-0.029498078 0.70099998 -0.022123558 4.3216689e-39 296 258
-0.028228667 0.69999999 -0.022091998 4.2294733e-39 297 258
-0.027001332 0.69999999 -0.022091998 4.3209501e-39 298 258
-0.025700359 0.69800001 -0.02202888 4.2287544e-39 299 258
-0.024476532 0.69800001 -0.02202888 4.4120695e-39 300 258
-0.023252707 0.69800001 -0.02202888 4.4120695e-39 301 258
-0.02202888 0.69800001 -0.02202888 4.4113506e-39 302 258
-0.020805053 0.69800001 -0.02202888 4.4113506e-39 303 258
-0.019581227 0.69800001 -0.02202888 4.3191522e-39 304 258
-0.0183574 0.69800001 -0.02202888 4.3191522e-39 305 258
-0.017133573 0.69800001 -0.02202888 4.3191522e-39 306 258
-0.015909746 0.69800001 -0.02202888 4.3191522e-39 307 258
-0.01468592 0.69800001 -0.02202888 4.3184333e-39 308 258
-0.013462093 0.69800001 -0.02202888 4.5024645e-39 309 258
-0.012220734 0.69700003 -0.02199732 4.1344036e-39 310 258
-0.01099866 0.69700003 -0.02199732 4.2266006e-39 311 258
-0.0097765867 0.69700003 -0.02199732 3.9518144e-39 312 258
-0.0085545136 0.69700003 -0.02199732 3.9518144e-39 313 258
-0.00733244 0.69700003 -0.02199732 3.4926341e-39 314 258
-0.0061103669 0.69700003 -0.02199732 3.4926341e-39 315 258
-0.0048882933 0.69700003 -0.02199732 3.3100421e-39 316 258
-0.0036714801 0.69800001 -0.02202888 3.3100421e-39 317 258
-0.0024476533 0.69800001 -0.02202888 3.3107582e-39 318 258
-0.0012238267 0.69800001 -0.02202888 3.2185626e-39 319 258
0 0.69800001 -0.02202888 3.0352503e-39 320 258
0.0012238267 0.69800001 -0.02202888 3.0352503e-39 321 258
0.0024476533 0.69800001 -0.02202888 2.8515821e-39 322 258
0.0036714801 0.69800001 -0.02202888 2.8515821e-39 323 258
0.0049093333 0.69999999 -0.022091998 3.035616e-39 324 258
0.0061366665 0.69999999 -0.022091998 3.035616e-39 325 258
0.0073745195 0.70099998 -0.022123558 3.1270928e-39 326 258
0.0086036054 0.70099998 -0.022123558 3.1270928e-39 327 258
0.0098607466 0.70300001 -0.02218668 3.1278117e-39 328 258
0.011109119 0.704 -0.022218239 3.2200073e-39 329 258
0.012343466 0.704 -0.022218239 3.4958739e-39 330 258
0.013616386 0.70599997 -0.022281358 3.5880696e-39 331 258
